ply
format ascii 1.0
element vertex 1209
property float x
property float y
property float z
property uchar r
property uchar g
property uchar b
end_header
-5.187000 2.766000 1.642000 165 156 113
-5.187000 2.649000 1.642000 166 157 118
-5.187000 2.530000 1.645000 166 157 126
-5.189000 2.641000 1.852000 171 161 134
-5.188000 2.858000 1.716000 167 156 124
-5.191000 2.734000 2.037000 170 163 135
-5.187000 3.065000 1.518000 163 153 126
-5.190000 2.870000 1.864000 168 162 130
-5.188000 2.779000 1.694000 167 158 117
-5.187000 3.161000 1.390000 167 158 141
-5.186000 2.501000 1.572000 163 156 130
-5.186000 2.601000 1.515000 163 155 116
-5.191000 2.812000 2.038000 169 162 133
-5.191000 2.848000 2.007000 165 160 130
-5.186000 2.888000 1.476000 160 156 109
-5.186000 2.932000 1.399000 162 157 115
-5.186000 2.670000 1.544000 162 155 111
-5.191000 2.787000 2.113000 170 165 136
-5.189000 2.933000 1.811000 168 159 126
-5.186000 3.017000 1.374000 165 158 132
-5.192000 2.781000 2.126000 171 164 138
-5.186000 2.547000 1.512000 164 156 117
-5.187000 2.823000 1.535000 162 155 111
-5.191000 2.804000 1.993000 169 162 133
-5.188000 2.702000 1.739000 167 159 123
-5.189000 2.904000 1.773000 169 158 126
-5.189000 3.023000 1.762000 164 153 135
-5.188000 3.053000 1.647000 163 153 128
-5.189000 2.964000 1.740000 163 156 130
-5.190000 2.998000 1.824000 168 159 130
-5.190000 2.889000 1.865000 167 161 129
-5.189000 2.943000 1.707000 163 153 126
-5.188000 2.898000 1.610000 165 157 111
-5.190000 2.726000 1.962000 168 161 133
-5.191000 2.934000 1.964000 168 159 130
-5.187000 3.133000 1.482000 163 155 134
-5.186000 2.788000 1.449000 159 155 108
-5.186000 3.037000 1.387000 165 158 132
-5.188000 2.884000 1.715000 165 157 121
-5.187000 2.840000 1.558000 162 155 113
-5.186000 2.858000 1.492000 160 155 113
-5.188000 2.676000 1.715000 167 156 126
-5.189000 2.745000 1.846000 170 160 133
-5.191000 2.889000 2.048000 169 160 131
-5.186000 2.775000 1.449000 161 157 112
-5.186000 3.169000 1.335000 167 160 144
-5.186000 2.706000 1.549000 161 157 112
-5.190000 2.853000 1.968000 169 160 129
-5.186000 2.724000 1.523000 161 157 109
-5.186000 2.869000 1.418000 162 156 108
-5.188000 3.097000 1.553000 163 153 128
-5.191000 2.854000 2.089000 168 163 133
-5.188000 2.780000 1.738000 168 159 126
-5.189000 2.886000 1.816000 168 159 128
-5.186000 2.652000 1.524000 163 154 111
-5.188000 2.589000 1.760000 168 160 123
-5.189000 2.763000 1.824000 168 159 126
-5.189000 3.027000 1.751000 164 153 135
-5.192000 2.830000 2.204000 175 165 138
-5.187000 2.685000 1.666000 166 157 114
-5.188000 3.084000 1.583000 162 152 127
-5.186000 3.121000 1.368000 166 159 140
-5.187000 2.974000 1.476000 163 155 118
-5.188000 3.038000 1.593000 163 151 127
-5.189000 2.715000 1.875000 169 164 134
-5.186000 2.691000 1.473000 162 155 109
-5.191000 2.931000 1.990000 166 161 131
-5.186000 2.823000 1.425000 159 155 108
-5.185000 2.509000 1.522000 166 158 122
-5.187000 2.597000 1.674000 166 157 124
-5.186000 3.176000 1.344000 166 159 143
-5.189000 2.871000 1.775000 169 159 124
-5.186000 3.050000 1.372000 166 160 136
-5.188000 2.885000 1.636000 164 155 112
-5.192000 2.897000 2.082000 168 161 133
-5.186000 2.644000 1.474000 163 156 112
-5.193000 2.830000 2.233000 177 165 141
-5.177000 2.930000 0.517000 179 176 157
-5.175000 2.955000 0.411000 179 176 157
-5.179000 2.522000 0.742000 179 175 148
-5.172000 3.079000 0.224000 168 167 149
-5.178000 2.663000 0.658000 178 178 150
-5.172000 2.945000 0.274000 177 174 157
-5.178000 2.591000 0.654000 183 181 158
-5.177000 2.327000 0.745000 179 176 157
-5.175000 2.757000 0.464000 180 177 158
-5.177000 2.913000 0.532000 180 177 158
-5.175000 2.883000 0.413000 181 178 159
-5.179000 2.752000 0.673000 180 178 153
-5.177000 2.764000 0.558000 184 182 161
-5.177000 2.681000 0.616000 184 180 153
-5.171000 3.064000 0.180000 168 162 146
-5.179000 2.465000 0.759000 179 175 150
-5.178000 2.948000 0.549000 179 176 157
-5.176000 2.680000 0.571000 181 181 157
-5.179000 2.923000 0.619000 180 177 158
-5.173000 3.087000 0.268000 169 168 150
-5.178000 2.490000 0.688000 181 179 158
-5.176000 2.739000 0.523000 182 181 161
-5.170000 3.044000 0.142000 167 164 147
-5.179000 2.874000 0.599000 181 179 156
-5.177000 2.646000 0.611000 185 183 160
-5.176000 2.622000 0.568000 186 184 161
-5.169000 3.139000 0.076000 45 52 58
-5.178000 2.766000 0.623000 184 180 155
-5.172000 2.997000 0.243000 169 167 152
-5.177000 2.822000 0.561000 180 182 158
-5.175000 2.779000 0.456000 182 179 160
-5.175000 2.596000 0.554000 188 185 166
-5.176000 2.969000 0.458000 179 176 157
-5.178000 2.694000 0.635000 181 181 157
-5.179000 2.787000 0.628000 180 180 154
-5.176000 2.578000 0.606000 185 183 162
-5.173000 2.985000 0.311000 177 174 157
-5.176000 2.637000 0.545000 185 182 163
-5.179000 2.960000 0.588000 179 176 157
-5.176000 2.503000 0.615000 185 183 160
-5.178000 2.543000 0.692000 183 179 154
-5.173000 3.055000 0.290000 170 169 151
-5.179000 2.614000 0.725000 179 177 152
-5.177000 2.542000 0.642000 181 181 157
-5.175000 2.859000 0.431000 182 179 160
-5.174000 3.001000 0.362000 176 173 154
-5.170000 3.078000 0.131000 169 166 151
-5.175000 2.633000 0.502000 186 186 162
-5.172000 2.901000 0.279000 179 176 159
-5.177000 2.895000 0.502000 185 184 163
-5.177000 2.828000 0.542000 182 181 160
-5.176000 2.570000 0.577000 187 185 164
-5.170000 2.984000 0.183000 167 166 148
-5.173000 2.836000 0.357000 181 178 159
-5.179000 2.666000 0.675000 180 180 152
-5.178000 2.785000 0.593000 183 181 158
-5.178000 2.460000 0.698000 180 178 157
-5.173000 2.939000 0.305000 179 176 159
-5.174000 2.938000 0.348000 179 176 157
-5.176000 2.994000 0.427000 179 176 159
-5.174000 2.859000 0.379000 182 179 160
-5.176000 2.776000 0.512000 186 181 162
-5.175000 2.740000 0.499000 182 179 160
-5.174000 2.792000 0.403000 185 180 161
-5.178000 2.983000 0.526000 177 174 157
-5.176000 2.835000 0.475000 183 178 158
-5.177000 2.508000 0.647000 183 181 160
-5.175000 2.700000 0.503000 182 180 157
-5.175000 3.026000 0.373000 178 175 158
-5.176000 3.026000 0.425000 178 175 158
-5.176000 2.919000 0.459000 179 176 159
-5.176000 2.838000 0.476000 183 178 158
-5.175000 2.878000 0.426000 182 179 160
-5.178000 2.382000 0.769000 176 174 153
-5.175000 2.813000 0.478000 182 179 160
-5.173000 2.888000 0.332000 179 176 159
-5.179000 2.859000 0.631000 181 179 154
-5.173000 3.076000 0.287000 169 168 150
-5.172000 3.059000 0.241000 168 165 150
-5.175000 2.988000 0.376000 177 175 154
-5.176000 3.017000 0.407000 178 175 156
-5.175000 3.038000 0.393000 177 174 155
-5.170000 3.133000 0.128000 171 169 146
-5.177000 2.977000 0.507000 178 176 155
-5.175000 2.652000 0.526000 182 179 160
-5.176000 2.695000 0.524000 181 181 157
-5.177000 3.027000 0.455000 178 175 158
-5.175000 2.938000 0.428000 180 177 158
-5.179000 2.979000 0.589000 180 175 156
-5.184000 2.801000 1.176000 165 160 131
-5.182000 2.877000 0.930000 164 164 130
-5.185000 2.981000 1.259000 162 158 133
-5.185000 3.042000 1.215000 165 158 140
-5.183000 2.947000 1.007000 164 160 133
-5.184000 3.014000 1.081000 163 157 141
-5.185000 3.115000 1.169000 167 160 144
-5.182000 2.826000 0.878000 171 168 133
-5.181000 2.971000 0.736000 177 176 148
-5.186000 2.896000 1.367000 160 157 114
-5.184000 3.021000 1.062000 165 160 141
-5.186000 3.098000 1.286000 166 159 141
-5.185000 3.040000 1.243000 165 158 139
-5.183000 2.934000 0.973000 165 161 132
-5.181000 2.876000 0.835000 169 168 137
-5.186000 2.968000 1.341000 165 158 129
-5.184000 2.903000 1.220000 161 157 128
-5.185000 2.959000 1.272000 163 157 131
-5.185000 2.835000 1.284000 162 160 119
-5.183000 2.971000 1.059000 161 159 138
-5.182000 3.002000 0.810000 175 171 142
-5.183000 3.068000 0.992000 166 161 139
-5.184000 2.663000 1.251000 166 160 124
-5.186000 3.142000 1.279000 166 159 143
-5.182000 2.993000 0.868000 170 167 134
-5.185000 2.770000 1.406000 161 154 110
-5.185000 2.684000 1.379000 162 157 117
-5.183000 2.794000 1.041000 164 161 130
-5.184000 2.778000 1.158000 165 160 131
-5.182000 2.871000 0.934000 164 164 130
-5.184000 2.973000 1.175000 163 157 135
-5.184000 2.694000 1.210000 163 158 129
-5.185000 3.083000 1.182000 163 158 139
-5.185000 2.535000 1.436000 165 156 127
-5.183000 3.016000 1.011000 166 160 138
-5.185000 2.850000 1.374000 161 157 109
-5.184000 3.102000 1.081000 168 160 147
-5.184000 2.943000 1.090000 163 158 136
-5.183000 2.872000 0.984000 165 162 129
-5.184000 3.051000 1.026000 163 161 140
-5.185000 2.765000 1.369000 162 157 115
-5.185000 2.967000 1.302000 163 158 128
-5.184000 2.859000 1.169000 165 160 131
-5.182000 2.940000 0.867000 169 169 135
-5.184000 3.051000 1.109000 166 158 147
-5.185000 2.611000 1.388000 163 158 118
-5.182000 2.911000 0.877000 167 167 133
-5.184000 2.636000 1.284000 165 162 121
-5.185000 2.574000 1.419000 162 158 110
-5.186000 3.141000 1.264000 165 159 145
-5.183000 2.789000 1.078000 166 160 136
-5.183000 2.740000 1.146000 166 160 138
-5.185000 3.006000 1.305000 165 159 133
-5.184000 2.694000 1.285000 166 161 123
-5.185000 2.600000 1.430000 163 155 116
-5.182000 2.963000 0.809000 172 171 141
-5.182000 2.801000 0.988000 164 164 130
-5.182000 3.016000 0.908000 169 165 136
-5.182000 3.036000 0.897000 169 165 136
-5.183000 2.923000 1.023000 164 159 130
-5.185000 2.649000 1.382000 162 157 117
-5.183000 2.740000 1.077000 166 163 132
-5.185000 2.907000 1.234000 162 157 128
-5.184000 2.764000 1.222000 166 159 130
-5.186000 3.061000 1.298000 168 160 141
-5.185000 3.042000 1.161000 164 157 141
-5.183000 2.894000 1.072000 164 160 133
-5.185000 2.599000 1.371000 163 158 116
-5.185000 2.826000 1.273000 163 159 121
-5.185000 2.775000 1.301000 164 159 119
-5.185000 3.110000 1.250000 164 158 146
-5.182000 3.033000 0.868000 170 166 137
-5.185000 3.130000 1.132000 160 154 138
-5.184000 2.886000 1.125000 163 159 132
-5.184000 3.079000 1.031000 162 159 140
-5.184000 2.892000 1.153000 163 159 132
-5.184000 3.007000 1.155000 164 157 139
-5.183000 3.067000 0.952000 166 160 134
-5.185000 3.004000 1.178000 163 156 137
-5.184000 2.870000 1.185000 161 157 128
-5.184000 2.736000 1.274000 165 160 120
-5.184000 2.703000 1.261000 165 159 123
-5.185000 3.145000 1.188000 162 153 146
-5.185000 2.781000 1.343000 162 158 110
-5.185000 2.922000 1.283000 164 158 126
-5.185000 2.825000 1.303000 166 159 115
-5.184000 2.974000 1.172000 163 156 137
-5.182000 2.970000 0.925000 164 164 130
-5.183000 2.832000 1.100000 167 161 139
-5.185000 2.668000 1.328000 163 160 117
-5.181000 2.993000 0.762000 176 175 147
-5.183000 2.858000 1.029000 165 158 130
-5.184000 2.791000 1.257000 165 161 124
-5.183000 2.997000 0.970000 164 161 130
-5.186000 3.183000 1.301000 165 158 150
-5.185000 2.707000 1.362000 162 157 117
-5.184000 3.092000 1.019000 158 149 132
-5.181000 2.979000 0.712000 177 175 150
-5.195000 3.010000 2.709000 190 180 168
-5.185000 3.119000 2.727000 147 136 106
-5.189000 3.234000 2.730000 135 124 104
-5.196000 3.222000 2.721000 183 174 159
-5.191000 3.058000 2.717000 151 141 114
-5.193000 3.150000 2.720000 176 168 149
-5.188000 3.212000 2.730000 134 123 101
-5.189000 3.117000 2.722000 139 129 104
-5.182000 3.048000 2.726000 148 138 102
-5.193000 3.228000 2.724000 184 172 156
-5.175000 2.877000 2.723000 153 145 109
-5.185000 3.148000 2.729000 146 137 108
-5.167000 3.430000 0.171000 172 171 151
-5.177000 3.068000 0.485000 178 175 158
-5.174000 3.162000 0.419000 175 172 155
-5.169000 3.181000 0.100000 84 91 84
-5.166000 3.426000 0.063000 40 45 49
-5.168000 3.177000 0.016000 51 63 63
-5.172000 3.166000 0.246000 168 165 148
-5.169000 3.242000 0.103000 139 139 129
-5.168000 3.373000 0.164000 154 155 141
-5.166000 3.449000 0.092000 30 38 40
-5.170000 3.234000 0.176000 166 163 146
-5.173000 3.193000 0.373000 172 170 155
-5.169000 3.375000 0.223000 176 173 156
-5.166000 3.402000 0.067000 42 47 51
-5.169000 3.303000 0.157000 158 157 139
-5.167000 3.409000 0.129000 151 152 138
-5.171000 3.160000 0.202000 167 165 150
-5.171000 3.258000 0.283000 168 167 149
-5.168000 3.250000 0.067000 43 54 50
-5.168000 3.207000 0.063000 45 54 53
-5.176000 3.133000 0.466000 178 172 158
-5.169000 3.280000 0.182000 163 160 145
-5.167000 3.285000 0.055000 44 52 54
-5.169000 3.238000 0.136000 161 158 143
-5.170000 3.266000 0.227000 166 165 145
-5.170000 3.213000 0.139000 161 163 142
-5.173000 3.212000 0.375000 171 169 156
-5.171000 3.185000 0.214000 166 163 146
-5.172000 3.210000 0.268000 170 167 150
-5.165000 3.497000 0.092000 32 38 36
-5.167000 3.418000 0.120000 152 153 135
-5.165000 3.492000 0.051000 35 43 46
-5.169000 3.328000 0.191000 159 158 140
-5.174000 3.116000 0.337000 173 170 153
-5.167000 3.233000 0.020000 45 55 56
-5.174000 3.138000 0.340000 172 169 152
-5.173000 3.145000 0.294000 170 169 151
-5.167000 3.371000 0.088000 43 48 51
-5.170000 3.312000 0.250000 167 164 147
-5.178000 3.047000 0.538000 178 175 156
-5.177000 3.086000 0.510000 178 175 158
-5.172000 3.243000 0.339000 170 168 153
-5.175000 3.086000 0.422000 176 173 156
-5.171000 3.287000 0.293000 169 166 149
-5.168000 3.285000 0.124000 155 158 141
-5.170000 3.341000 0.246000 161 160 142
-5.176000 3.097000 0.449000 175 172 155
-5.166000 3.342000 0.023000 41 51 53
-5.164000 3.543000 0.045000 35 38 43
-5.167000 3.292000 0.016000 43 53 55
-5.166000 3.348000 0.043000 44 50 50
-5.175000 3.110000 0.436000 175 172 155
-5.175000 3.130000 0.435000 177 171 157
-5.172000 3.219000 0.305000 170 167 150
-5.190000 3.158000 1.844000 166 155 123
-5.190000 3.077000 1.843000 169 159 123
-5.192000 3.324000 2.047000 166 152 113
-5.190000 3.135000 1.769000 168 154 125
-5.190000 3.222000 1.771000 163 151 135
-5.189000 3.319000 1.680000 156 147 130
-5.190000 3.248000 1.812000 163 152 132
-5.191000 3.074000 1.995000 169 158 128
-5.189000 3.109000 1.664000 161 150 128
-5.192000 3.422000 1.966000 165 152 108
-5.191000 3.385000 1.917000 165 152 108
-5.192000 2.917000 2.168000 170 163 137
-5.191000 3.155000 1.980000 169 156 122
-5.191000 3.353000 1.879000 165 150 119
-5.189000 3.245000 1.664000 160 151 136
-5.192000 3.157000 2.105000 167 156 126
-5.190000 2.982000 1.918000 167 160 131
-5.190000 3.276000 1.840000 163 153 128
-5.192000 2.988000 2.151000 170 163 137
-5.192000 2.986000 2.054000 168 161 132
-5.188000 3.148000 1.568000 159 153 131
-5.191000 3.153000 1.955000 168 155 120
-5.190000 3.173000 1.803000 165 153 129
-5.189000 3.103000 1.690000 161 150 130
-5.191000 3.182000 1.984000 169 154 121
-5.188000 3.166000 1.591000 160 152 133
-5.188000 3.256000 1.529000 159 152 134
-5.191000 3.219000 1.963000 164 153 123
-5.191000 3.253000 1.918000 165 153 127
-5.190000 3.336000 1.782000 161 149 127
-5.191000 3.392000 1.823000 160 148 124
-5.190000 3.251000 1.728000 161 149 137
-5.190000 3.051000 1.822000 168 157 127
-5.192000 2.942000 2.113000 170 160 135
-5.190000 3.283000 1.762000 162 149 130
-5.190000 3.035000 1.883000 168 157 127
-5.192000 3.071000 2.057000 169 158 130
-5.189000 3.336000 1.688000 157 146 124
-5.190000 3.320000 1.802000 161 151 126
-5.188000 3.227000 1.475000 162 153 138
-5.191000 2.942000 2.034000 167 160 131
-5.192000 3.198000 2.084000 168 156 118
-5.191000 3.309000 1.926000 165 153 115
-5.193000 2.894000 2.208000 173 166 140
-5.187000 3.201000 1.467000 164 155 138
-5.192000 3.033000 2.152000 172 162 137
-5.189000 3.323000 1.666000 158 148 139
-5.190000 3.044000 1.848000 169 158 126
-5.191000 3.116000 1.908000 168 158 123
-5.191000 2.991000 2.006000 166 159 130
-5.192000 3.118000 2.052000 166 155 125
-5.191000 3.389000 1.860000 164 149 116
-5.191000 3.319000 1.916000 165 153 115
-5.189000 3.231000 1.714000 161 149 137
-5.189000 3.171000 1.725000 160 148 134
-5.192000 2.970000 2.173000 172 162 137
-5.187000 3.221000 1.386000 159 152 142
-5.191000 3.085000 2.020000 167 156 128
-5.192000 3.455000 1.979000 163 150 105
-5.191000 3.235000 1.932000 164 152 130
-5.192000 3.173000 2.065000 168 155 121
-5.190000 3.369000 1.730000 158 147 129
-5.189000 3.110000 1.730000 162 151 133
-5.191000 3.176000 1.909000 168 155 123
-5.187000 3.242000 1.444000 154 151 132
-5.192000 3.177000 2.039000 168 155 120
-5.191000 3.011000 1.948000 167 160 131
-5.192000 3.228000 1.997000 165 152 118
-5.191000 3.046000 1.958000 168 159 130
-5.192000 3.362000 2.019000 164 152 114
-5.188000 3.290000 1.570000 158 151 133
-5.189000 3.189000 1.706000 159 150 135
-5.192000 2.990000 2.081000 169 160 131
-5.190000 3.187000 1.826000 165 154 134
-5.189000 3.196000 1.627000 160 151 134
-5.192000 3.104000 2.089000 169 158 130
-5.192000 3.423000 1.991000 165 152 108
-5.190000 3.378000 1.760000 158 147 127
-5.191000 3.097000 1.929000 167 156 126
-5.192000 3.260000 2.076000 167 155 115
-5.191000 3.426000 1.856000 164 149 116
-5.190000 3.270000 1.843000 162 151 129
-5.192000 3.441000 1.973000 162 151 105
-5.190000 3.178000 1.782000 165 153 131
-5.191000 3.338000 1.943000 164 152 112
-5.188000 3.194000 1.546000 163 151 135
-5.190000 3.091000 1.810000 169 156 121
-5.189000 3.198000 1.613000 160 150 138
-5.192000 3.364000 2.037000 165 151 112
-5.189000 3.314000 1.595000 157 146 126
-5.192000 3.032000 2.117000 171 159 135
-5.191000 3.366000 1.849000 163 150 118
-5.188000 3.185000 1.490000 163 154 137
-5.193000 2.998000 2.186000 171 164 138
-5.192000 3.115000 2.134000 170 159 131
-5.191000 3.146000 1.907000 166 156 120
-5.189000 3.173000 1.649000 159 151 132
-5.193000 2.931000 2.204000 172 165 139
-5.189000 3.263000 1.596000 159 150 133
-5.192000 3.236000 2.074000 166 154 114
-5.193000 2.875000 2.229000 172 166 142
-5.189000 3.335000 1.671000 158 148 136
-5.192000 3.282000 2.077000 164 152 112
-5.191000 3.429000 1.884000 163 149 114
-5.192000 3.289000 1.980000 167 153 116
-5.188000 3.280000 1.522000 154 147 128
-5.192000 3.403000 2.029000 163 151 111
-5.187000 3.234000 1.416000 158 150 137
-5.192000 3.129000 2.126000 170 159 127
-5.192000 3.479000 1.974000 164 153 107
-5.196000 3.077000 2.460000 179 170 155
-5.195000 3.007000 2.351000 177 169 150
-5.194000 2.954000 2.335000 177 166 146
-5.197000 2.965000 2.563000 184 175 158
-5.194000 3.145000 2.247000 175 163 139
-5.194000 3.081000 2.265000 174 163 141
-5.198000 2.987000 2.593000 182 176 160
-5.194000 3.011000 2.302000 176 165 147
-5.195000 3.117000 2.320000 173 166 140
-5.193000 3.063000 2.176000 173 161 137
-5.194000 3.062000 2.268000 174 163 141
-5.194000 2.892000 2.368000 178 170 149
-5.193000 2.903000 2.280000 174 166 143
-5.193000 3.337000 2.092000 162 153 112
-5.196000 2.964000 2.457000 182 173 158
-5.195000 3.065000 2.388000 177 169 150
-5.194000 3.305000 2.212000 166 158 122
-5.196000 3.169000 2.400000 178 167 145
-5.197000 3.042000 2.494000 184 174 162
-5.193000 2.976000 2.237000 175 164 142
-5.194000 3.237000 2.248000 170 159 127
-5.195000 2.958000 2.425000 180 171 154
-5.198000 3.040000 2.567000 183 174 157
-5.193000 3.263000 2.152000 167 154 119
-5.193000 3.395000 2.084000 162 153 112
-5.197000 3.013000 2.564000 182 175 157
-5.198000 2.964000 2.594000 185 178 162
-5.195000 3.200000 2.313000 174 162 138
-5.193000 3.119000 2.192000 173 164 135
-5.195000 3.076000 2.365000 175 167 148
-5.195000 3.073000 2.344000 176 165 145
-5.193000 2.935000 2.228000 175 164 142
-5.195000 3.137000 2.365000 174 168 142
-5.193000 3.283000 2.149000 167 154 119
-5.194000 3.370000 2.147000 162 152 117
-5.196000 3.062000 2.432000 178 170 151
-5.195000 3.166000 2.325000 174 164 139
-5.194000 3.207000 2.214000 170 159 127
-5.195000 3.014000 2.393000 180 169 151
-5.194000 3.050000 2.300000 176 165 143
-5.196000 2.928000 2.486000 183 176 160
-5.194000 3.232000 2.218000 169 159 124
-5.193000 3.222000 2.148000 169 156 121
-5.194000 3.287000 2.231000 168 157 127
-5.195000 3.231000 2.316000 173 162 134
-5.193000 3.153000 2.189000 171 160 132
-5.196000 3.113000 2.411000 176 168 149
-5.195000 2.899000 2.378000 177 169 150
-5.194000 3.210000 2.245000 171 160 130
-5.197000 3.087000 2.485000 181 172 155
-5.194000 2.973000 2.285000 175 167 144
-5.196000 3.006000 2.456000 180 173 157
-5.196000 2.997000 2.480000 184 175 160
-5.196000 3.213000 2.352000 175 163 137
-5.194000 3.328000 2.177000 164 154 118
-5.193000 3.375000 2.130000 164 154 118
-5.192000 3.443000 2.035000 163 151 109
-5.196000 3.142000 2.430000 177 169 146
-5.196000 3.178000 2.376000 176 165 143
-5.198000 2.975000 2.636000 183 177 161
-5.198000 3.026000 2.590000 185 176 159
-5.179000 3.164000 0.755000 180 174 158
-5.179000 3.254000 0.824000 172 169 152
-5.171000 3.385000 0.411000 169 168 150
-5.172000 3.347000 0.421000 171 170 152
-5.179000 3.038000 0.622000 176 173 154
-5.181000 3.273000 0.996000 163 158 139
-5.181000 3.224000 0.957000 165 159 143
-5.177000 3.181000 0.623000 180 176 164
-5.174000 3.323000 0.522000 175 173 158
-5.172000 3.278000 0.330000 168 166 151
-5.179000 3.019000 0.638000 176 174 153
-5.172000 3.324000 0.417000 171 168 151
-5.180000 3.209000 0.857000 171 168 151
-5.183000 3.177000 1.036000 162 155 136
-5.171000 3.333000 0.312000 171 168 151
-5.171000 3.435000 0.421000 167 166 146
-5.173000 3.405000 0.556000 173 172 151
-5.179000 3.266000 0.877000 169 166 147
-5.174000 3.267000 0.488000 173 170 153
-5.181000 3.261000 0.967000 163 158 139
-5.175000 3.188000 0.513000 177 174 159
-5.169000 3.465000 0.358000 166 161 139
-5.175000 3.331000 0.619000 174 173 155
-5.183000 3.129000 1.047000 161 154 135
-5.179000 3.289000 0.867000 171 165 149
-5.177000 3.339000 0.750000 174 171 154
-5.169000 3.426000 0.313000 165 162 145
-5.176000 3.281000 0.646000 178 176 161
-5.181000 3.147000 0.889000 170 165 143
-5.174000 3.302000 0.553000 177 174 159
-5.177000 3.159000 0.566000 176 173 156
-5.176000 3.286000 0.675000 177 175 160
-5.182000 3.194000 0.985000 164 159 140
-5.179000 3.193000 0.803000 174 172 157
-5.173000 3.358000 0.525000 174 173 155
-5.177000 3.176000 0.635000 180 176 165
-5.178000 3.263000 0.772000 173 172 154
-5.180000 3.169000 0.821000 176 171 152
-5.175000 3.304000 0.584000 176 174 159
-5.173000 3.318000 0.470000 172 170 155
-5.178000 3.291000 0.796000 173 170 153
-5.182000 3.119000 0.931000 169 163 139
-5.172000 3.378000 0.430000 170 168 153
-5.176000 3.136000 0.509000 176 173 156
-5.167000 3.508000 0.256000 159 155 130
-5.180000 3.110000 0.795000 178 172 150
-5.168000 3.434000 0.193000 166 165 145
-5.177000 3.162000 0.635000 179 175 163
-5.177000 3.148000 0.606000 178 175 158
-5.181000 3.122000 0.836000 172 170 149
-5.182000 3.027000 0.800000 175 171 146
-5.171000 3.435000 0.441000 169 168 150
-5.180000 3.124000 0.756000 179 174 155
-5.175000 3.263000 0.545000 176 172 160
-5.170000 3.386000 0.301000 169 166 149
-5.178000 3.105000 0.598000 177 174 157
-5.175000 3.338000 0.630000 175 174 156
-5.177000 3.244000 0.703000 178 176 161
-5.174000 3.219000 0.456000 174 171 154
-5.182000 3.161000 0.998000 164 158 136
-5.167000 3.476000 0.221000 152 149 132
-5.179000 3.281000 0.895000 170 165 146
-5.180000 3.222000 0.880000 171 165 149
-5.178000 3.169000 0.703000 181 178 163
-5.168000 3.435000 0.230000 167 164 145
-5.178000 3.225000 0.729000 178 174 162
-5.176000 3.213000 0.566000 176 174 161
-5.172000 3.362000 0.445000 172 169 154
-5.182000 3.247000 1.088000 160 155 136
-5.172000 3.424000 0.521000 172 171 153
-5.182000 3.172000 0.955000 168 161 142
-5.173000 3.237000 0.400000 170 169 151
-5.176000 3.359000 0.720000 175 172 155
-5.169000 3.478000 0.359000 166 161 139
-5.182000 3.089000 0.904000 168 164 139
-5.179000 3.048000 0.631000 176 173 156
-5.172000 3.427000 0.485000 171 170 152
-5.180000 3.307000 0.946000 163 160 141
-5.177000 3.228000 0.667000 179 177 164
-5.164000 3.552000 0.077000 31 39 42
-5.184000 3.146000 1.094000 162 155 139
-5.184000 3.201000 1.148000 164 155 140
-5.174000 3.244000 0.429000 174 168 152
-5.178000 3.117000 0.655000 178 175 160
-5.181000 3.026000 0.739000 176 174 151
-5.177000 3.219000 0.697000 178 176 163
-5.166000 3.528000 0.133000 146 140 118
-5.185000 3.186000 1.187000 162 156 144
-5.180000 3.032000 0.711000 179 174 152
-5.176000 3.333000 0.672000 175 174 154
-5.185000 3.181000 1.226000 161 157 148
-5.169000 3.401000 0.242000 171 168 153
-5.172000 3.433000 0.527000 172 169 150
-5.182000 3.228000 1.032000 161 154 136
-5.176000 3.249000 0.589000 178 174 162
-5.168000 3.477000 0.289000 156 153 136
-5.174000 3.381000 0.583000 173 172 152
-5.166000 3.499000 0.159000 148 146 125
-5.177000 3.282000 0.732000 175 174 156
-5.177000 3.106000 0.534000 179 173 157
-5.175000 3.324000 0.659000 176 175 155
-5.171000 3.351000 0.347000 169 166 149
-5.170000 3.423000 0.336000 166 163 146
-5.166000 3.529000 0.186000 155 153 128
-5.174000 3.338000 0.535000 174 172 157
-5.184000 3.231000 1.191000 162 156 142
-5.175000 3.377000 0.688000 174 171 152
-5.177000 3.327000 0.796000 173 167 151
-5.183000 3.210000 1.109000 163 154 137
-5.181000 3.275000 1.022000 160 157 138
-5.175000 3.263000 0.580000 178 175 158
-5.183000 3.244000 1.134000 161 156 137
-5.179000 3.242000 0.837000 170 169 151
-5.180000 3.081000 0.720000 177 175 154
-5.175000 3.386000 0.669000 173 172 154
-5.176000 3.278000 0.620000 177 175 160
-5.180000 3.162000 0.831000 175 168 150
-5.175000 3.370000 0.707000 174 171 154
-5.178000 3.333000 0.834000 172 167 148
-5.176000 3.176000 0.508000 176 173 158
-5.164000 3.575000 0.042000 83 87 88
-5.175000 3.222000 0.530000 174 171 156
-5.175000 3.160000 0.480000 177 171 157
-5.194000 3.404000 2.403000 172 162 135
-5.194000 3.333000 2.298000 170 159 131
-5.194000 3.379000 2.441000 174 164 139
-5.195000 3.375000 2.545000 180 169 151
-5.195000 3.391000 2.591000 174 169 150
-5.195000 3.354000 2.684000 182 170 156
-5.195000 3.313000 2.553000 178 171 155
-5.196000 3.229000 2.587000 180 172 161
-5.194000 3.344000 2.346000 170 160 133
-5.196000 3.229000 2.427000 175 165 140
-5.195000 3.335000 2.555000 178 169 152
-5.193000 3.452000 2.172000 164 153 123
-5.194000 3.398000 2.273000 168 157 127
-5.194000 3.392000 2.312000 172 158 131
-5.196000 3.198000 2.577000 182 173 156
-5.196000 3.289000 2.701000 183 173 161
-5.194000 3.313000 2.298000 170 159 131
-5.196000 3.216000 2.657000 184 172 158
-5.198000 3.050000 2.643000 184 176 165
-5.195000 3.319000 2.500000 178 170 151
-5.196000 3.234000 2.515000 179 172 154
-5.197000 3.147000 2.568000 182 173 156
-5.194000 3.359000 2.431000 174 164 139
-5.196000 3.281000 2.641000 184 172 160
-5.195000 3.369000 2.522000 180 169 151
-5.195000 3.320000 2.444000 174 163 141
-5.197000 3.107000 2.572000 185 174 156
-5.197000 3.111000 2.662000 185 176 161
-5.195000 3.302000 2.424000 174 164 139
-5.197000 3.135000 2.475000 179 170 153
-5.197000 3.136000 2.581000 182 175 156
-5.194000 3.354000 2.412000 174 164 139
-5.193000 3.410000 2.191000 165 154 122
-5.196000 3.227000 2.635000 182 173 158
-5.194000 3.402000 2.509000 178 167 147
-5.195000 3.387000 2.626000 176 169 151
-5.194000 3.371000 2.247000 166 155 123
-5.195000 3.406000 2.686000 180 168 152
-5.193000 3.436000 2.220000 169 156 124
-5.196000 3.234000 2.421000 176 164 140
-5.195000 3.304000 2.606000 180 173 155
-5.196000 3.207000 2.470000 178 169 152
-5.195000 3.226000 2.370000 176 164 140
-5.195000 3.287000 2.343000 172 162 137
-5.193000 3.467000 2.097000 165 153 115
-5.195000 3.355000 2.667000 182 170 158
-5.197000 3.077000 2.615000 184 174 162
-5.194000 3.422000 2.370000 171 161 134
-5.195000 3.353000 2.594000 180 168 152
-5.197000 3.129000 2.643000 184 175 160
-5.196000 3.225000 2.513000 179 172 154
-5.196000 3.180000 2.551000 184 173 155
-5.196000 3.267000 2.568000 181 172 157
-5.178000 3.373000 1.050000 163 158 139
-5.164000 3.605000 0.190000 156 152 123
-5.173000 3.495000 1.018000 167 161 139
-5.174000 3.439000 0.848000 170 165 143
-5.169000 3.504000 0.437000 168 163 141
-5.166000 3.671000 0.931000 169 165 140
-5.164000 3.593000 0.244000 159 156 125
-5.178000 3.381000 1.174000 165 158 148
-5.167000 3.611000 0.749000 168 164 137
-5.171000 3.483000 0.649000 170 168 145
-5.169000 3.605000 0.985000 168 163 141
-5.173000 3.432000 0.656000 170 171 153
-5.168000 3.554000 0.551000 168 167 139
-5.176000 3.390000 0.820000 170 164 148
-5.176000 3.406000 0.986000 165 160 141
-5.164000 3.625000 0.347000 165 161 134
-5.163000 3.707000 0.688000 169 165 136
-5.169000 3.543000 0.658000 168 164 135
-5.167000 3.557000 0.383000 166 160 134
-5.171000 3.517000 0.844000 166 162 137
-5.174000 3.470000 0.988000 166 160 138
-5.165000 3.635000 0.523000 170 166 139
-5.173000 3.471000 0.878000 165 163 138
-5.164000 3.656000 0.589000 167 166 138
-5.179000 3.360000 1.180000 163 159 147
-5.182000 3.296000 1.239000 159 155 146
-5.172000 3.467000 0.699000 169 167 144
-5.164000 3.630000 0.467000 168 164 137
-5.173000 3.514000 1.077000 169 162 143
-5.172000 3.509000 0.922000 167 161 139
-5.163000 3.599000 0.120000 48 53 49
-5.174000 3.464000 1.050000 165 160 140
-5.178000 3.371000 1.015000 165 160 141
-5.181000 3.301000 1.180000 161 157 146
-5.185000 3.233000 1.282000 159 156 149
-5.178000 3.365000 0.964000 166 161 142
-5.166000 3.573000 0.311000 162 158 129
-5.167000 3.535000 0.265000 158 154 127
-5.170000 3.503000 0.622000 171 167 142
-5.165000 3.670000 0.748000 166 165 135
-5.172000 3.484000 0.727000 168 166 143
-5.181000 3.289000 1.084000 161 155 139
-5.163000 3.639000 0.366000 167 163 136
-5.164000 3.703000 0.781000 167 166 136
-5.180000 3.342000 1.133000 162 158 146
-5.170000 3.528000 0.699000 169 165 138
-5.168000 3.534000 0.518000 168 164 137
-5.165000 3.655000 0.645000 168 164 135
-5.166000 3.600000 0.562000 170 166 139
-5.170000 3.481000 0.516000 168 166 141
-5.165000 3.603000 0.413000 168 164 137
-5.170000 3.503000 0.528000 169 165 140
-5.176000 3.426000 1.032000 166 159 141
-5.181000 3.290000 1.052000 159 156 137
-5.172000 3.531000 1.032000 166 160 138
-5.173000 3.489000 0.937000 165 160 138
-5.168000 3.586000 0.799000 167 163 134
-5.172000 3.465000 0.742000 168 166 145
-5.179000 3.345000 1.115000 163 158 139
-5.170000 3.524000 0.721000 168 164 137
-5.177000 3.374000 0.887000 167 165 144
-5.165000 3.608000 0.453000 169 166 135
-5.173000 3.467000 0.775000 167 165 144
-5.167000 3.585000 0.669000 169 165 138
-5.174000 3.451000 0.944000 167 162 140
-5.171000 3.547000 0.945000 167 163 138
-5.168000 3.614000 0.953000 167 162 140
-5.164000 3.640000 0.424000 169 166 135
-5.172000 3.447000 0.596000 171 170 149
-5.163000 3.630000 0.268000 162 157 127
-5.167000 3.610000 0.692000 167 163 136
-5.169000 3.579000 0.839000 167 163 136
-5.171000 3.544000 0.919000 167 161 137
-5.173000 3.507000 1.038000 167 160 141
-5.164000 3.686000 0.731000 166 165 135
-5.166000 3.646000 0.782000 168 164 139
-5.170000 3.542000 0.809000 166 162 133
-5.181000 3.301000 1.136000 160 157 138
-5.176000 3.390000 0.897000 168 163 143
-5.163000 3.688000 0.572000 166 165 137
-5.167000 3.539000 0.346000 159 160 129
-5.164000 3.683000 0.671000 168 164 137
-5.169000 3.568000 0.751000 167 163 136
-5.164000 3.596000 0.150000 90 96 73
-5.165000 3.587000 0.321000 160 159 129
-5.177000 3.415000 1.084000 165 159 143
-5.165000 3.697000 0.892000 170 164 138
-5.167000 3.592000 0.613000 170 166 139
-5.165000 3.709000 0.926000 167 165 142
-5.167000 3.636000 0.922000 168 164 139
-5.177000 3.378000 0.963000 165 160 141
-5.183000 3.265000 1.245000 160 156 147
-5.175000 3.402000 0.747000 171 168 149
-5.174000 3.423000 0.792000 168 165 146
-5.176000 3.387000 0.771000 171 168 151
-5.165000 3.668000 0.834000 167 163 136
-5.174000 3.471000 1.091000 168 161 145
-5.170000 3.567000 0.994000 168 162 140
-5.169000 3.499000 0.417000 164 162 139
-5.167000 3.564000 0.449000 168 164 137
-5.169000 3.576000 0.913000 166 162 137
-5.164000 3.665000 0.565000 168 167 139
-5.175000 3.410000 0.852000 169 164 144
-5.179000 3.379000 1.183000 165 158 150
-5.176000 3.419000 1.057000 166 159 141
-5.166000 3.603000 0.522000 168 167 139
-5.168000 3.634000 0.985000 168 163 143
-5.164000 3.672000 0.684000 168 164 135
-5.176000 3.446000 1.112000 168 161 145
-5.171000 3.511000 0.814000 167 163 136
-5.175000 3.424000 0.957000 168 161 143
-5.163000 3.727000 0.804000 168 167 139
-5.176000 3.380000 0.836000 171 166 146
-5.170000 3.558000 0.873000 165 161 134
-5.163000 3.686000 0.585000 167 166 138
-5.164000 3.696000 0.846000 168 164 139
-5.175000 3.418000 0.925000 168 162 140
-5.168000 3.560000 0.591000 170 166 139
-5.163000 3.631000 0.316000 164 160 131
-5.176000 3.433000 1.131000 168 159 150
-5.164000 3.728000 0.885000 168 166 141
-5.170000 3.578000 1.026000 168 163 141
-5.173000 3.637000 1.236000 165 161 136
-5.179000 3.488000 1.340000 164 157 129
-5.183000 3.571000 1.645000 158 147 119
-5.181000 3.555000 1.518000 159 150 119
-5.185000 3.366000 1.504000 159 149 124
-5.181000 3.333000 1.227000 161 157 146
-5.168000 3.652000 1.026000 168 163 144
-5.177000 3.615000 1.426000 159 156 125
-5.176000 3.626000 1.392000 160 155 126
-5.182000 3.492000 1.492000 159 150 121
-5.184000 3.417000 1.526000 158 149 120
-5.187000 3.493000 1.766000 158 147 129
-5.188000 3.426000 1.691000 153 147 125
-5.171000 3.613000 1.117000 168 160 147
-5.182000 3.368000 1.318000 163 156 138
-5.172000 3.555000 1.105000 169 161 148
-5.187000 3.504000 1.784000 158 147 127
-5.188000 3.438000 1.745000 159 146 129
-5.174000 3.546000 1.194000 167 158 143
-5.180000 3.466000 1.358000 161 156 127
-5.185000 3.261000 1.367000 160 154 142
-5.190000 3.503000 1.896000 161 149 111
-5.174000 3.590000 1.241000 167 159 138
-5.184000 3.543000 1.691000 156 146 121
-5.170000 3.655000 1.125000 169 162 146
-5.175000 3.554000 1.259000 165 159 135
-5.183000 3.462000 1.510000 159 150 119
-5.176000 3.492000 1.213000 167 158 143
-5.173000 3.551000 1.138000 166 159 143
-5.189000 3.453000 1.816000 160 148 122
-5.178000 3.540000 1.373000 164 155 126
-5.178000 3.573000 1.428000 160 154 122
-5.181000 3.577000 1.558000 158 149 116
-5.183000 3.276000 1.277000 160 156 147
-5.184000 3.410000 1.479000 160 150 123
-5.182000 3.387000 1.364000 162 154 135
-5.177000 3.596000 1.389000 159 156 123
-5.169000 3.677000 1.123000 169 162 146
-5.179000 3.598000 1.517000 158 152 118
-5.171000 3.631000 1.156000 168 161 143
-5.187000 3.341000 1.562000 158 146 124
-5.177000 3.491000 1.275000 164 158 134
-5.187000 3.405000 1.630000 156 145 123
-5.174000 3.518000 1.152000 168 161 145
-5.173000 3.656000 1.295000 164 160 131
-5.189000 3.400000 1.720000 156 147 130
-5.182000 3.518000 1.544000 156 150 118
-5.173000 3.591000 1.210000 168 160 137
-5.180000 3.418000 1.312000 162 155 136
-5.184000 3.323000 1.389000 159 152 134
-5.185000 3.440000 1.602000 156 146 119
-5.182000 3.356000 1.328000 160 155 136
-5.181000 3.486000 1.439000 162 153 124
-5.179000 3.522000 1.409000 160 154 122
-5.178000 3.565000 1.406000 164 155 126
-5.186000 3.494000 1.707000 156 145 123
-5.184000 3.299000 1.371000 160 153 137
-5.184000 3.481000 1.603000 157 148 119
-5.184000 3.355000 1.413000 159 151 130
-5.186000 3.300000 1.467000 157 149 130
-5.187000 3.532000 1.785000 159 147 125
-5.183000 3.409000 1.432000 158 151 125
-5.175000 3.610000 1.334000 163 158 129
-5.177000 3.459000 1.191000 166 158 145
-5.186000 3.465000 1.652000 156 146 121
-5.188000 3.352000 1.625000 155 147 124
-5.186000 3.544000 1.755000 158 146 124
-5.166000 3.692000 1.001000 169 162 144
-5.179000 3.470000 1.308000 163 158 136
-5.177000 3.555000 1.324000 162 156 130
-5.185000 3.435000 1.567000 155 148 120
-5.168000 3.698000 1.062000 170 162 151
-5.172000 3.630000 1.215000 166 161 139
-5.187000 3.384000 1.616000 157 146 124
-5.189000 3.500000 1.862000 160 150 114
-5.165000 3.728000 0.986000 169 164 145
-5.183000 3.377000 1.395000 163 152 132
-5.172000 3.590000 1.159000 168 161 145
-5.169000 3.688000 1.131000 169 162 144
-5.176000 3.590000 1.343000 163 156 128
-5.182000 3.531000 1.568000 159 150 121
-5.184000 3.373000 1.458000 158 150 129
-5.180000 3.375000 1.241000 165 157 146
-5.177000 3.520000 1.287000 163 157 133
-5.182000 3.557000 1.596000 157 148 119
-5.182000 3.442000 1.450000 158 152 120
-5.175000 3.643000 1.334000 161 157 128
-5.185000 3.503000 1.656000 157 145 121
-5.175000 3.520000 1.187000 168 159 144
-5.175000 3.595000 1.293000 164 158 132
-5.175000 3.458000 1.127000 166 160 148
-5.179000 3.434000 1.258000 165 158 139
-5.176000 3.579000 1.300000 164 157 129
-5.180000 3.466000 1.378000 161 156 127
-5.170000 3.680000 1.176000 169 163 141
-5.176000 3.533000 1.274000 164 158 134
-5.181000 3.580000 1.583000 159 150 119
-5.176000 3.628000 1.373000 163 156 127
-5.165000 3.729000 0.961000 168 166 145
-5.175000 3.566000 1.276000 164 158 132
-5.180000 3.667000 1.656000 157 151 119
-5.189000 3.558000 1.938000 163 151 103
-5.181000 3.701000 1.759000 162 150 126
-5.173000 3.710000 1.354000 164 160 131
-5.174000 3.711000 1.411000 164 158 122
-5.171000 3.713000 1.256000 168 162 138
-5.174000 3.729000 1.439000 162 157 125
-5.182000 3.712000 1.855000 166 153 121
-5.191000 3.583000 2.071000 163 154 113
-5.186000 3.623000 1.895000 163 150 116
-5.180000 3.703000 1.690000 160 151 120
-5.174000 3.723000 1.426000 164 158 126
-5.182000 3.640000 1.725000 158 148 123
-5.186000 3.676000 1.955000 166 153 111
-5.186000 3.690000 2.001000 168 154 115
-5.183000 3.715000 1.889000 166 153 119
-5.184000 3.644000 1.801000 160 150 125
-5.182000 3.619000 1.698000 158 149 120
-5.178000 3.667000 1.556000 161 153 117
-5.168000 3.732000 1.127000 169 164 145
-5.186000 3.670000 1.980000 167 154 110
-5.190000 3.544000 1.986000 164 151 107
-5.182000 3.592000 1.662000 158 147 119
-5.185000 3.658000 1.923000 165 152 108
-5.182000 3.675000 1.769000 161 149 125
-5.186000 3.715000 2.041000 168 156 114
-5.183000 3.729000 1.917000 170 153 110
-5.177000 3.737000 1.624000 159 156 123
-5.186000 3.668000 1.950000 164 155 112
-5.187000 3.620000 1.955000 166 151 110
-5.175000 3.736000 1.525000 162 160 121
-5.177000 3.659000 1.497000 162 154 118
-5.179000 3.696000 1.662000 161 152 121
-5.179000 3.669000 1.608000 157 153 118
-5.175000 3.716000 1.499000 164 156 119
-5.188000 3.546000 1.901000 162 150 110
-5.167000 3.731000 1.061000 170 163 145
-5.178000 3.708000 1.620000 160 154 120
-5.184000 3.671000 1.867000 164 151 119
-5.176000 3.714000 1.517000 164 156 119
-5.170000 3.729000 1.220000 169 163 139
-5.187000 3.576000 1.869000 163 150 115
-5.185000 3.582000 1.777000 159 147 125
-5.176000 3.664000 1.456000 160 156 118
-5.180000 3.736000 1.754000 160 152 131
-5.188000 3.677000 2.111000 169 157 117
-5.172000 3.728000 1.327000 165 161 132
-5.181000 3.729000 1.793000 166 152 125
-5.176000 3.729000 1.564000 166 153 118
-5.185000 3.584000 1.757000 160 148 126
-5.172000 3.692000 1.288000 165 159 133
-5.188000 3.625000 2.020000 164 152 112
-5.182000 3.713000 1.823000 164 152 128
-5.177000 3.710000 1.556000 163 155 119
-5.176000 3.685000 1.460000 160 156 118
-5.188000 3.659000 2.034000 164 152 112
-5.175000 3.671000 1.377000 164 159 127
-5.173000 3.735000 1.384000 168 160 124
-5.188000 3.546000 1.864000 163 150 115
-5.172000 3.732000 1.319000 163 162 134
-5.179000 3.726000 1.700000 162 151 121
-5.168000 3.726000 1.117000 169 162 143
-5.182000 3.735000 1.844000 162 152 127
-5.178000 3.737000 1.638000 159 156 123
-5.176000 3.729000 1.524000 161 156 116
-5.170000 3.734000 1.244000 171 161 136
-5.160000 3.666000 0.217000 160 155 125
-5.156000 3.683000 0.038000 31 32 27
-5.160000 3.688000 0.338000 167 163 136
-5.159000 3.651000 0.041000 60 65 61
-5.157000 3.717000 0.231000 164 162 139
-5.160000 3.698000 0.429000 169 165 140
-5.159000 3.669000 0.145000 48 51 40
-5.159000 3.663000 0.114000 44 49 45
-5.161000 3.701000 0.511000 167 165 140
-5.156000 3.721000 0.209000 164 164 140
-5.157000 3.689000 0.143000 46 52 42
-5.160000 3.728000 0.571000 166 166 138
-5.160000 3.728000 0.583000 167 167 139
-5.154000 3.723000 0.083000 47 55 57
-5.162000 3.726000 0.715000 167 168 137
-5.158000 3.725000 0.391000 171 170 142
-5.158000 3.711000 0.304000 165 163 138
-5.156000 3.726000 0.227000 167 165 144
-5.158000 3.726000 0.375000 171 169 144
-5.159000 3.727000 0.467000 171 170 142
-5.162000 3.727000 0.728000 167 168 137
-5.157000 3.727000 0.354000 170 168 145
-5.159000 3.726000 0.502000 169 167 142
-5.157000 1.825000 0.155000 173 167 141
-5.153000 3.631000 0.023000 34 35 37
-5.076000 3.693000 0.028000 46 42 41
-5.070000 3.688000 0.028000 39 35 26
-5.155000 1.820000 2.479000 174 175 143
-5.179000 1.663000 2.721000 167 161 137
-5.175000 1.670000 2.721000 173 167 143
-5.175000 1.696000 2.722000 169 162 136
-5.178000 1.723000 2.722000 168 161 135
-5.170000 1.661000 2.556000 207 199 186
-5.171000 1.660000 2.575000 208 202 188
-5.169000 1.676000 2.544000 206 198 185
-5.167000 1.680000 2.516000 202 195 179
-5.176000 1.685000 2.596000 204 198 184
-5.179000 1.660000 2.651000 186 180 156
-5.175000 1.689000 2.585000 205 199 183
-5.177000 1.720000 2.569000 187 179 142
-5.175000 1.651000 2.632000 203 197 181
-5.177000 1.672000 2.619000 203 195 184
-5.181000 1.696000 2.648000 213 202 182
-1.593000 3.025000 2.179000 68 65 56
-1.577000 3.019000 2.162000 47 53 51
-1.572000 3.017000 2.160000 49 55 55
-1.611000 3.033000 2.181000 74 67 59
-1.614000 3.035000 2.174000 72 67 61
-1.605000 2.212000 2.180000 74 70 58
-1.591000 2.251000 2.167000 56 55 50
-1.589000 2.323000 2.165000 71 72 66
-1.587000 2.162000 2.162000 73 75 74
-1.601000 2.538000 2.178000 64 64 52
-1.599000 2.117000 2.174000 69 64 58
-1.588000 2.388000 2.165000 73 74 69
-1.605000 2.090000 2.179000 79 72 64
-1.607000 2.273000 2.183000 76 72 60
-1.599000 2.397000 2.176000 71 67 55
-1.605000 2.433000 2.182000 77 73 62
-1.603000 2.360000 2.179000 73 67 53
-1.598000 2.179000 2.173000 68 65 58
-1.599000 2.503000 2.176000 68 64 53
-1.592000 2.427000 2.169000 76 72 61
-1.596000 2.506000 2.174000 67 63 52
-1.594000 2.363000 2.170000 68 65 58
-1.601000 2.141000 2.176000 69 66 57
-1.606000 2.317000 2.182000 71 69 57
-1.604000 2.584000 2.182000 62 61 56
-1.573000 3.010000 2.176000 40 41 36
-1.550000 2.956000 2.159000 75 81 81
-1.585000 2.676000 2.172000 54 56 51
-1.576000 2.567000 2.163000 115 120 114
-1.566000 2.672000 2.160000 100 107 99
-1.575000 2.696000 2.167000 69 75 71
-1.568000 2.847000 2.167000 137 142 136
-1.558000 2.802000 2.160000 104 112 101
-1.588000 2.848000 2.180000 57 54 47
-1.586000 2.880000 2.180000 56 56 46
-1.562000 2.895000 2.165000 87 94 87
-1.576000 2.644000 2.166000 81 91 83
-1.575000 2.550000 2.162000 86 96 92
-1.566000 2.771000 2.164000 115 125 116
-1.593000 2.786000 2.181000 68 66 53
-1.577000 2.918000 2.175000 43 47 46
-1.582000 2.815000 2.175000 49 51 48
-1.594000 2.658000 2.178000 63 63 53
-1.579000 2.950000 2.178000 51 48 43
-1.585000 2.765000 2.175000 54 54 52
-1.593000 2.611000 2.175000 58 55 46
-1.595000 2.716000 2.180000 65 61 52
-1.576000 2.836000 2.172000 50 55 49
-1.593000 2.729000 2.179000 63 60 51
-1.574000 2.506000 2.159000 92 102 99
-1.573000 2.575000 2.161000 123 128 121
-1.581000 3.025000 0.492000 76 88 76
-1.576000 3.023000 0.405000 70 86 76
-1.584000 3.025000 0.568000 78 89 73
-1.579000 3.024000 0.454000 71 87 74
-1.580000 3.023000 0.365000 78 86 75
-1.599000 2.076000 0.018000 71 80 79
-1.584000 2.136000 0.018000 69 86 141
-1.594000 2.220000 0.018000 90 116 182
-1.599000 2.274000 0.018000 84 102 156
-1.599000 2.282000 0.018000 114 129 172
-1.529000 2.967000 0.021000 75 74 70
-1.589000 2.942000 0.021000 62 61 67
-1.579000 2.806000 0.019000 76 76 78
-1.530000 2.840000 0.019000 64 64 66
-1.568000 2.993000 0.022000 70 74 73
-1.584000 2.991000 0.022000 62 63 67
-1.508000 2.977000 0.021000 66 66 58
-1.526000 2.882000 0.019000 79 76 83
-1.593000 2.868000 0.020000 79 77 80
-1.510000 2.860000 0.019000 76 72 69
-1.506000 2.925000 0.020000 78 74 65
-1.578000 2.775000 0.018000 76 74 77
-1.602000 2.894000 0.020000 79 77 78
-1.514000 2.968000 0.021000 90 87 80
-1.569000 2.795000 0.018000 70 68 71
-1.548000 3.026000 0.022000 88 104 101
-1.509000 2.402000 0.018000 83 84 76
-1.501000 2.572000 0.017000 120 118 97
-1.527000 2.157000 0.018000 104 108 120
-1.531000 2.349000 0.018000 111 110 91
-1.534000 2.490000 0.017000 108 102 87
-1.535000 2.554000 0.017000 68 70 65
-1.506000 2.195000 0.018000 97 109 121
-1.588000 2.675000 0.017000 61 61 63
-1.566000 2.419000 0.018000 77 77 79
-1.555000 2.440000 0.018000 79 80 82
-1.520000 2.511000 0.017000 140 134 118
-1.502000 2.445000 0.017000 129 123 88
-1.519000 2.241000 0.018000 120 146 183
-1.557000 2.123000 0.018000 70 81 114
-1.512000 2.374000 0.018000 86 85 83
-1.512000 2.170000 0.018000 105 116 120
-1.533000 2.176000 0.018000 74 83 88
-1.523000 2.292000 0.018000 143 158 197
-1.564000 2.269000 0.018000 69 93 140
-1.503000 2.619000 0.017000 120 117 98
-1.591000 2.400000 0.018000 68 69 73
-1.580000 2.541000 0.017000 88 87 92
-1.560000 2.607000 0.017000 64 68 71
-1.590000 2.613000 0.017000 102 102 104
-1.534000 2.286000 0.018000 133 152 182
-1.516000 2.626000 0.017000 140 135 115
-1.562000 2.644000 0.017000 88 86 91
-1.594000 2.331000 0.018000 71 72 74
-1.592000 2.451000 0.018000 64 66 65
-1.592000 2.684000 0.017000 65 65 65
-1.576000 2.522000 0.017000 93 92 98
-1.504000 2.093000 0.017000 58 75 83
-1.568000 2.694000 0.017000 79 79 81
-1.517000 2.713000 0.018000 139 135 110
-1.546000 2.753000 0.018000 84 83 79
-1.503000 2.770000 0.018000 112 106 93
-1.505000 2.782000 0.018000 105 102 92
-1.601000 3.035000 0.951000 88 99 90
-1.575000 3.023000 1.189000 125 129 114
-1.573000 3.027000 1.246000 96 108 98
-1.576000 3.024000 1.185000 144 148 133
-1.570000 3.027000 1.281000 88 104 97
-1.564000 3.022000 1.289000 93 108 109
-1.567000 3.022000 1.253000 92 108 101
-1.578000 3.023000 1.150000 90 101 89
-1.575000 3.022000 1.171000 107 116 99
-1.565000 3.024000 1.346000 87 103 98
-1.570000 3.028000 1.363000 84 100 92
-1.564000 3.024000 1.390000 85 98 93
-1.566000 3.026000 1.446000 78 89 83
-1.566000 3.026000 1.386000 84 98 90
-1.565000 3.025000 1.430000 80 91 83
-1.542000 3.015000 2.005000 75 85 86
-1.532000 3.007000 2.045000 74 82 84
-1.521000 3.000000 2.073000 80 84 87
-1.559000 3.025000 1.963000 94 104 101
-1.570000 3.034000 1.910000 86 97 88
-1.561000 3.027000 1.950000 90 106 101
-1.525000 3.002000 2.075000 59 64 67
-1.563000 3.027000 1.992000 98 109 103
-1.526000 3.001000 2.094000 45 51 51
-1.618000 3.043000 2.100000 67 69 58
-1.523000 2.997000 2.131000 17 17 19
-1.573000 3.026000 2.056000 89 97 89
-1.579000 3.024000 2.120000 57 63 63
-1.565000 3.034000 0.055000 63 72 71
-1.505000 2.999000 0.052000 92 108 101
-1.519000 3.004000 0.113000 71 86 79
-1.539000 3.003000 0.300000 73 86 76
-1.541000 3.010000 0.213000 67 82 79
-1.559000 3.019000 0.234000 82 92 81
-1.506000 2.995000 0.131000 94 117 104
-1.565000 3.015000 0.346000 101 106 85
-1.501000 2.989000 0.183000 67 80 70
-1.535000 3.018000 0.032000 83 99 96
-1.554000 3.023000 0.114000 92 110 102
-1.566000 3.031000 0.097000 67 78 74
-1.575000 3.026000 0.263000 96 103 84
-1.537000 3.011000 0.151000 54 66 62
-1.580000 3.025000 0.322000 110 113 91
-1.567000 3.026000 0.187000 68 84 74
-1.566000 3.029000 0.145000 67 79 77
-1.558000 3.032000 1.761000 85 97 88
-1.522000 3.006000 1.517000 70 80 71
-1.534000 3.013000 1.542000 70 83 76
-1.502000 3.001000 1.681000 89 103 109
-1.506000 2.999000 1.567000 92 104 100
-1.575000 3.035000 1.589000 84 91 83
-1.575000 3.036000 1.641000 82 92 84
-1.517000 3.002000 1.470000 77 89 85
-1.567000 3.035000 1.705000 81 92 86
-1.543000 3.019000 1.594000 86 101 101
-1.522000 3.009000 1.613000 74 84 76
-1.564000 3.026000 1.489000 80 90 82
-1.528000 3.012000 1.626000 71 80 77
-1.535000 3.018000 1.688000 68 79 83
-1.534000 3.012000 1.507000 72 85 78
-1.570000 3.031000 1.547000 79 88 83
-1.541000 3.023000 1.752000 93 108 117
-1.500000 2.999000 1.653000 84 98 104
-1.520000 3.002000 1.421000 75 90 85
-1.525000 3.014000 1.740000 76 85 84
-1.509000 2.999000 1.927000 88 100 93
-1.536000 3.019000 1.799000 72 87 94
-1.524000 3.012000 1.810000 80 89 86
-1.542000 3.021000 1.830000 84 103 105
-1.564000 3.032000 1.855000 85 94 91
-1.502000 2.998000 1.844000 89 101 103
-1.501000 2.991000 2.024000 66 66 54
-1.574000 3.040000 1.788000 84 94 96
-1.553000 3.025000 1.875000 88 99 98
-1.517000 3.005000 1.885000 79 91 91
-1.569000 3.020000 0.864000 93 106 96
-1.529000 3.008000 0.765000 97 110 101
-1.506000 3.001000 0.695000 106 116 107
-1.531000 3.009000 0.815000 91 110 110
-1.580000 3.025000 0.752000 90 100 82
-1.580000 3.024000 0.907000 92 103 93
-1.521000 3.006000 0.737000 102 118 108
-1.568000 3.019000 0.934000 93 109 102
-1.559000 3.017000 0.901000 118 129 125
-1.578000 3.024000 0.788000 88 101 88
-1.580000 3.023000 0.967000 91 106 92
-1.533000 3.010000 0.716000 93 104 92
