ply
format ascii 1.0
element vertex 1329
property float x
property float y
property float z
property uchar r
property uchar g
property uchar b
end_header
-2.976000 2.076000 2.734000 225 0 0
-2.859000 2.194000 2.735000 225 0 0
-2.944000 1.891000 2.734000 225 0 0
-3.022000 1.881000 2.733000 225 0 0
-2.722000 2.052000 2.736000 225 0 0
-2.924000 2.304000 2.735000 225 0 0
-3.025000 2.007000 2.734000 225 0 0
-2.896000 2.237000 2.735000 225 0 0
-2.873000 2.166000 2.735000 225 0 0
-2.780000 2.189000 2.736000 225 0 0
-2.868000 2.311000 2.735000 225 0 0
-2.991000 1.832000 2.734000 225 0 0
-2.863000 1.907000 2.735000 225 0 0
-3.016000 2.047000 2.734000 225 0 0
-2.916000 1.975000 2.735000 225 0 0
-3.094000 1.759000 2.733000 225 0 0
-2.827000 2.031000 2.735000 225 0 0
-2.908000 2.068000 2.735000 225 0 0
-3.002000 1.815000 2.734000 225 0 0
-2.866000 2.108000 2.735000 225 0 0
-2.730000 2.114000 2.736000 225 0 0
-2.977000 1.971000 2.734000 225 0 0
-2.928000 2.237000 2.735000 225 0 0
-2.943000 2.116000 2.734000 225 0 0
-3.065000 1.736000 2.733000 225 0 0
-3.026000 1.826000 2.733000 225 0 0
-2.796000 2.031000 2.736000 225 0 0
-2.825000 1.936000 2.735000 225 0 0
-3.110000 1.822000 2.733000 225 0 0
-2.962000 1.842000 2.734000 225 0 0
-3.032000 1.782000 2.733000 225 0 0
-2.941000 2.195000 2.735000 225 0 0
-2.875000 1.947000 2.735000 225 0 0
-2.974000 2.067000 2.734000 225 0 0
-2.912000 1.880000 2.734000 225 0 0
-2.670000 2.037000 2.737000 225 0 0
-2.770000 1.960000 2.736000 225 0 0
-3.093000 1.720000 2.733000 225 0 0
-2.783000 2.142000 2.736000 225 0 0
-2.750000 2.041000 2.736000 225 0 0
-2.849000 2.232000 2.735000 225 0 0
-2.906000 2.186000 2.735000 225 0 0
-2.962000 1.807000 2.734000 225 0 0
-2.795000 1.925000 2.736000 225 0 0
-2.718000 2.089000 2.736000 225 0 0
-2.954000 2.136000 2.734000 225 0 0
-2.818000 1.992000 2.735000 225 0 0
-3.010000 1.766000 2.733000 225 0 0
-2.674000 2.025000 2.737000 225 0 0
-2.866000 1.873000 2.735000 225 0 0
-2.772000 2.183000 2.736000 225 0 0
-2.869000 2.327000 2.735000 225 0 0
-3.069000 1.721000 2.733000 225 0 0
-2.959000 1.759000 2.739000 225 0 0
-3.015000 1.720000 2.738000 225 0 0
-2.918000 1.825000 2.735000 225 0 0
-2.893000 2.662000 2.739000 225 0 0
-2.767000 2.816000 2.741000 225 0 0
-3.070000 2.704000 2.740000 225 0 0
-2.913000 2.512000 2.736000 225 0 0
-2.721000 2.824000 2.741000 225 0 0
-2.998000 2.557000 2.737000 225 0 0
-3.061000 2.669000 2.740000 225 0 0
-2.982000 2.613000 2.738000 225 0 0
-2.852000 2.660000 2.738000 225 0 0
-2.863000 2.577000 2.737000 225 0 0
-2.952000 2.732000 2.740000 225 0 0
-2.945000 2.645000 2.739000 225 0 0
-2.817000 2.671000 2.738000 225 0 0
-2.714000 2.837000 2.741000 225 0 0
-2.825000 2.620000 2.738000 225 0 0
-2.979000 2.686000 2.740000 225 0 0
-2.782000 2.815000 2.741000 225 0 0
-2.750000 2.732000 2.739000 225 0 0
-2.905000 2.777000 2.741000 225 0 0
-2.960000 2.703000 2.740000 225 0 0
-2.876000 2.714000 2.739000 225 0 0
-3.079000 2.700000 2.740000 225 0 0
-2.787000 2.714000 2.739000 225 0 0
-2.868000 2.557000 2.737000 225 0 0
-3.007000 2.631000 2.739000 225 0 0
-3.082000 2.734000 2.741000 225 0 0
-2.892000 2.729000 2.740000 225 0 0
-2.872000 2.684000 2.739000 225 0 0
-2.757000 2.700000 2.739000 225 0 0
-2.891000 2.541000 2.736000 225 0 0
-2.810000 2.751000 2.740000 225 0 0
-2.971000 2.523000 2.737000 225 0 0
-2.856000 2.788000 2.741000 225 0 0
-3.014000 2.738000 2.741000 225 0 0
-2.855000 2.754000 2.740000 225 0 0
-3.071000 2.726000 2.741000 225 0 0
-2.915000 2.577000 2.737000 225 0 0
-2.941000 2.562000 2.737000 225 0 0
-2.929000 2.581000 2.737000 225 0 0
-2.924000 2.462000 2.735000 225 0 0
-2.733000 2.826000 2.741000 225 0 0
-2.670000 2.836000 2.741000 225 0 0
-2.938000 2.776000 2.741000 225 0 0
-2.719000 2.775000 2.740000 225 0 0
-2.898000 3.044000 2.740000 225 0 0
-2.859000 2.972000 2.740000 225 0 0
-2.947000 2.873000 2.740000 225 0 0
-2.909000 2.843000 2.741000 225 0 0
-2.778000 2.950000 2.740000 225 0 0
-3.054000 2.832000 2.740000 225 0 0
-2.995000 2.930000 2.740000 225 0 0
-3.070000 2.900000 2.740000 225 0 0
-3.008000 2.893000 2.740000 225 0 0
-3.018000 2.817000 2.741000 225 0 0
-2.769000 2.876000 2.741000 225 0 0
-2.951000 2.958000 2.740000 225 0 0
-3.072000 2.962000 2.740000 225 0 0
-2.963000 3.064000 2.739000 225 0 0
-3.013000 2.855000 2.740000 225 0 0
-3.125000 2.814000 2.740000 225 0 0
-2.990000 3.033000 2.739000 225 0 0
-2.912000 2.932000 2.740000 225 0 0
-2.802000 2.867000 2.741000 225 0 0
-2.968000 3.099000 2.739000 225 0 0
-2.909000 3.099000 2.739000 225 0 0
-2.722000 2.884000 2.741000 225 0 0
-3.073000 2.820000 2.740000 225 0 0
-2.836000 2.978000 2.740000 225 0 0
-2.928000 2.881000 2.740000 225 0 0
-2.878000 2.987000 2.740000 225 0 0
-2.822000 2.923000 2.740000 225 0 0
-2.891000 2.875000 2.740000 225 0 0
-2.855000 2.881000 2.740000 225 0 0
-2.962000 2.982000 2.740000 225 0 0
-2.831000 3.029000 2.740000 225 0 0
-2.792000 2.992000 2.740000 225 0 0
-2.977000 3.019000 2.740000 225 0 0
-2.861000 2.861000 2.741000 225 0 0
-2.742000 2.934000 2.740000 225 0 0
-2.965000 3.139000 2.739000 225 0 0
-2.763000 1.880000 2.738000 225 0 0
-2.826000 1.775000 2.740000 225 0 0
-2.742000 1.851000 2.739000 225 0 0
-2.923000 1.724000 2.740000 225 0 0
-2.899000 1.756000 2.739000 225 0 0
-2.859000 1.719000 2.740000 225 0 0
-2.757000 1.719000 2.741000 225 0 0
-2.781000 1.729000 2.741000 225 0 0
-2.706000 1.727000 2.741000 225 0 0
-2.726000 1.759000 2.741000 225 0 0
-2.701000 1.864000 2.739000 225 0 0
-2.719000 1.969000 2.737000 225 0 0
-2.808000 1.817000 2.739000 225 0 0
-2.722000 1.725000 2.741000 225 0 0
-2.766000 1.776000 2.740000 225 0 0
-2.837000 1.788000 2.739000 225 0 0
-2.792000 1.720000 2.741000 225 0 0
-2.784000 1.856000 2.739000 225 0 0
-2.708000 1.787000 2.740000 225 0 0
-2.926000 1.712000 2.740000 225 0 0
-2.687000 1.893000 2.739000 225 0 0
-2.671000 1.964000 2.738000 225 0 0
-2.810000 2.422000 2.737000 225 0 0
-2.798000 2.507000 2.737000 225 0 0
-2.874000 2.379000 2.735000 225 0 0
-2.664000 2.512000 2.739000 225 0 0
-2.783000 2.470000 2.737000 225 0 0
-2.707000 2.484000 2.738000 225 0 0
-2.760000 2.586000 2.738000 225 0 0
-2.743000 2.642000 2.739000 225 0 0
-2.710000 2.617000 2.739000 225 0 0
-2.700000 2.355000 2.738000 225 0 0
-2.672000 2.653000 2.740000 225 0 0
-2.834000 2.508000 2.737000 225 0 0
-2.658000 2.543000 2.739000 225 0 0
-2.739000 2.569000 2.738000 225 0 0
-2.752000 2.513000 2.738000 225 0 0
-2.729000 2.435000 2.738000 225 0 0
-2.797000 2.302000 2.736000 225 0 0
-2.668000 2.583000 2.739000 225 0 0
-2.672000 2.820000 2.740000 225 0 0
-2.709000 2.314000 2.737000 225 0 0
-2.710000 2.716000 2.739000 225 0 0
-2.743000 2.288000 2.737000 225 0 0
-2.821000 2.540000 2.737000 225 0 0
-2.701000 2.169000 2.737000 225 0 0
-2.655000 2.684000 2.740000 225 0 0
-2.686000 2.379000 2.738000 225 0 0
-2.765000 2.401000 2.737000 225 0 0
-2.856000 2.463000 2.736000 225 0 0
-2.669000 2.343000 2.738000 225 0 0
-2.665000 2.232000 2.738000 225 0 0
-2.665000 2.190000 2.738000 225 0 0
-2.722000 2.221000 2.737000 225 0 0
-2.755000 2.360000 2.737000 225 0 0
-2.804000 2.344000 2.736000 225 0 0
-2.743000 2.251000 2.737000 225 0 0
-2.660000 2.466000 2.739000 225 0 0
-2.669000 2.733000 2.740000 225 0 0
-2.664000 2.137000 2.737000 225 0 0
-2.673000 2.090000 2.737000 225 0 0
-2.684000 2.459000 2.739000 225 0 0
-2.677000 2.232000 2.738000 225 0 0
-2.717000 2.534000 2.738000 225 0 0
-2.675000 2.299000 2.738000 225 0 0
-2.663000 2.382000 2.738000 225 0 0
-2.684000 2.642000 2.739000 225 0 0
-2.483000 2.450000 2.739000 225 0 0
-2.343000 2.589000 2.739000 225 0 0
-2.598000 2.403000 2.739000 225 0 0
-2.593000 2.542000 2.739000 225 0 0
-2.554000 2.759000 2.740000 225 0 0
-2.419000 2.486000 2.739000 225 0 0
-2.420000 2.604000 2.739000 225 0 0
-2.554000 2.492000 2.739000 225 0 0
-2.544000 2.577000 2.739000 225 0 0
-2.493000 2.482000 2.739000 225 0 0
-2.555000 2.419000 2.739000 225 0 0
-2.352000 2.567000 2.739000 225 0 0
-2.592000 2.764000 2.740000 225 0 0
-2.594000 2.719000 2.740000 225 0 0
-2.550000 2.675000 2.740000 225 0 0
-2.465000 2.527000 2.739000 225 0 0
-2.493000 2.586000 2.739000 225 0 0
-2.618000 2.633000 2.740000 225 0 0
-2.602000 2.313000 2.738000 225 0 0
-2.574000 2.275000 2.738000 225 0 0
-2.464000 2.699000 2.740000 225 0 0
-2.437000 2.643000 2.739000 225 0 0
-2.590000 2.209000 2.738000 225 0 0
-2.583000 2.429000 2.739000 225 0 0
-2.517000 2.376000 2.738000 225 0 0
-2.579000 2.269000 2.738000 225 0 0
-2.495000 2.538000 2.739000 225 0 0
-2.473000 2.518000 2.739000 225 0 0
-2.584000 2.593000 2.739000 225 0 0
-2.616000 2.167000 2.737000 225 0 0
-2.425000 2.684000 2.740000 225 0 0
-2.502000 2.704000 2.740000 225 0 0
-2.474000 2.611000 2.739000 225 0 0
-2.587000 2.477000 2.739000 225 0 0
-2.570000 2.304000 2.738000 225 0 0
-2.600000 2.819000 2.741000 225 0 0
-2.543000 2.566000 2.739000 225 0 0
-2.549000 2.223000 2.738000 225 0 0
-2.522000 2.276000 2.738000 225 0 0
-2.565000 2.796000 2.740000 225 0 0
-2.532000 2.453000 2.739000 225 0 0
-2.417000 2.464000 2.739000 225 0 0
-2.465000 2.388000 2.738000 225 0 0
-2.567000 2.341000 2.738000 225 0 0
-2.379000 2.541000 2.739000 225 0 0
-2.512000 2.336000 2.738000 225 0 0
-2.615000 2.103000 2.737000 225 0 0
-2.509000 2.646000 2.740000 225 0 0
-2.624000 2.842000 2.741000 225 0 0
-2.555000 2.710000 2.740000 225 0 0
-2.601000 2.369000 2.738000 225 0 0
-2.507000 2.731000 2.740000 225 0 0
-2.432000 2.459000 2.739000 225 0 0
-2.464000 2.373000 2.738000 225 0 0
-2.375000 2.634000 2.739000 225 0 0
-2.367000 2.630000 2.739000 225 0 0
-2.521000 2.264000 2.738000 225 0 0
-2.551000 3.072000 2.740000 225 0 0
-2.339000 3.114000 2.740000 225 0 0
-2.715000 3.049000 2.740000 225 0 0
-2.632000 2.944000 2.740000 225 0 0
-2.653000 2.899000 2.741000 225 0 0
-2.376000 3.039000 2.740000 225 0 0
-2.460000 3.091000 2.740000 225 0 0
-2.483000 2.993000 2.740000 225 0 0
-2.704000 3.084000 2.740000 225 0 0
-2.774000 3.050000 2.740000 225 0 0
-2.806000 3.054000 2.740000 225 0 0
-2.505000 3.059000 2.740000 225 0 0
-2.670000 3.148000 2.739000 225 0 0
-2.760000 3.162000 2.739000 225 0 0
-2.683000 3.164000 2.739000 225 0 0
-2.476000 3.161000 2.739000 225 0 0
-2.511000 3.102000 2.740000 225 0 0
-2.700000 2.926000 2.740000 225 0 0
-2.557000 3.083000 2.740000 225 0 0
-2.744000 3.087000 2.740000 225 0 0
-2.451000 3.020000 2.740000 225 0 0
-2.633000 3.039000 2.740000 225 0 0
-2.619000 2.962000 2.740000 225 0 0
-2.598000 3.131000 2.739000 225 0 0
-2.176000 3.162000 2.740000 225 0 0
-2.808000 3.110000 2.739000 225 0 0
-2.810000 3.138000 2.739000 225 0 0
-2.638000 3.013000 2.740000 225 0 0
-2.402000 3.159000 2.739000 225 0 0
-2.274000 3.152000 2.740000 225 0 0
-2.715000 3.022000 2.740000 225 0 0
-2.573000 3.021000 2.740000 225 0 0
-2.581000 2.980000 2.740000 225 0 0
-2.338000 3.126000 2.740000 225 0 0
-2.846000 3.115000 2.739000 225 0 0
-2.457000 3.063000 2.740000 225 0 0
-2.545000 3.165000 2.739000 225 0 0
-2.647000 3.116000 2.739000 225 0 0
-2.550000 2.942000 2.741000 225 0 0
-2.281000 3.105000 2.740000 225 0 0
-2.518000 2.974000 2.740000 225 0 0
-2.913000 3.135000 2.739000 225 0 0
-2.618000 3.123000 2.739000 225 0 0
-2.835000 3.143000 2.739000 225 0 0
-2.451000 3.153000 2.739000 225 0 0
-2.274000 3.114000 2.740000 225 0 0
-2.311000 3.136000 2.740000 225 0 0
-2.597000 3.063000 2.740000 225 0 0
-2.360000 3.047000 2.740000 225 0 0
-2.612000 2.908000 2.741000 225 0 0
-2.731000 2.998000 2.740000 225 0 0
-2.397000 3.109000 2.740000 225 0 0
-2.561000 2.918000 2.741000 225 0 0
-2.169000 3.168000 2.740000 225 0 0
-2.409000 3.014000 2.740000 225 0 0
-2.314000 3.073000 2.740000 225 0 0
-2.420000 1.758000 2.740000 225 0 0
-2.589000 1.906000 2.738000 225 0 0
-2.570000 1.882000 2.739000 225 0 0
-2.644000 1.839000 2.740000 225 0 0
-2.470000 1.816000 2.739000 225 0 0
-2.555000 1.771000 2.740000 225 0 0
-2.483000 1.844000 2.739000 225 0 0
-2.440000 1.733000 2.741000 225 0 0
-2.625000 1.974000 2.738000 225 0 0
-2.570000 1.815000 2.740000 225 0 0
-2.581000 1.808000 2.740000 225 0 0
-2.506000 1.823000 2.739000 225 0 0
-2.361000 1.717000 2.741000 225 0 0
-2.373000 1.744000 2.740000 225 0 0
-2.675000 1.767000 2.741000 225 0 0
-2.465000 1.835000 2.739000 225 0 0
-2.563000 1.724000 2.741000 225 0 0
-2.515000 1.730000 2.741000 225 0 0
-2.591000 1.739000 2.741000 225 0 0
-2.416000 1.783000 2.740000 225 0 0
-2.414000 1.719000 2.741000 225 0 0
-2.643000 1.778000 2.741000 225 0 0
-2.480000 1.711000 2.741000 225 0 0
-2.599000 1.716000 2.741000 225 0 0
-2.472000 1.723000 2.741000 225 0 0
-2.653000 1.721000 2.741000 225 0 0
-2.667000 1.877000 2.739000 225 0 0
-2.606000 1.830000 2.740000 225 0 0
-2.559000 1.863000 2.739000 225 0 0
-2.499000 1.875000 2.739000 225 0 0
-2.623000 1.986000 2.737000 225 0 0
-2.572000 1.938000 2.738000 225 0 0
-2.170000 1.850000 2.741000 225 0 0
-2.407000 1.840000 2.739000 225 0 0
-2.323000 1.953000 2.739000 225 0 0
-2.253000 1.957000 2.740000 225 0 0
-2.154000 2.115000 2.740000 225 0 0
-2.269000 1.900000 2.740000 225 0 0
-2.216000 2.120000 2.739000 225 0 0
-2.344000 2.104000 2.738000 225 0 0
-2.222000 1.724000 2.741000 225 0 0
-2.223000 1.987000 2.740000 225 0 0
-2.249000 1.716000 2.741000 225 0 0
-2.274000 1.837000 2.740000 225 0 0
-2.105000 2.071000 2.740000 225 0 0
-2.472000 2.040000 2.738000 225 0 0
-2.336000 1.962000 2.739000 225 0 0
-2.446000 1.952000 2.739000 225 0 0
-2.391000 1.974000 2.739000 225 0 0
-2.197000 1.817000 2.741000 225 0 0
-2.279000 1.988000 2.739000 225 0 0
-2.297000 1.752000 2.741000 225 0 0
-2.240000 1.815000 2.741000 225 0 0
-2.411000 1.977000 2.739000 225 0 0
-2.280000 1.777000 2.741000 225 0 0
-2.101000 2.083000 2.740000 225 0 0
-2.171000 1.879000 2.741000 225 0 0
-2.106000 2.003000 2.741000 225 0 0
-2.139000 2.055000 2.740000 225 0 0
-2.505000 2.038000 2.738000 225 0 0
-2.000000 2.137000 2.740000 225 0 0
-2.349000 1.854000 2.740000 225 0 0
-2.404000 2.086000 2.738000 225 0 0
-2.412000 1.906000 2.739000 225 0 0
-2.374000 1.792000 2.740000 225 0 0
-2.178000 1.849000 2.741000 225 0 0
-2.067000 2.152000 2.740000 225 0 0
-2.250000 1.748000 2.741000 225 0 0
-2.444000 1.880000 2.739000 225 0 0
-2.111000 1.953000 2.741000 225 0 0
-2.335000 1.996000 2.739000 225 0 0
-2.151000 1.995000 2.740000 225 0 0
-2.320000 2.110000 2.739000 225 0 0
-2.248000 2.023000 2.739000 225 0 0
-2.059000 2.080000 2.740000 225 0 0
-2.325000 1.713000 2.741000 225 0 0
-2.335000 2.067000 2.739000 225 0 0
-2.124000 1.900000 2.741000 225 0 0
-2.204000 1.967000 2.740000 225 0 0
-2.219000 2.069000 2.739000 225 0 0
-2.273000 2.074000 2.739000 225 0 0
-2.040000 2.049000 2.741000 225 0 0
-2.281000 2.044000 2.739000 225 0 0
-2.247000 2.075000 2.739000 225 0 0
-2.383000 2.035000 2.739000 225 0 0
-2.199000 1.734000 2.741000 225 0 0
-2.170000 1.936000 2.740000 225 0 0
-2.291000 1.836000 2.740000 225 0 0
-2.521000 1.951000 2.738000 225 0 0
-2.130000 2.142000 2.740000 225 0 0
-2.214000 1.908000 2.740000 225 0 0
-2.461000 1.989000 2.738000 225 0 0
-2.513000 2.001000 2.738000 225 0 0
-2.530000 2.007000 2.738000 225 0 0
-2.282000 1.920000 2.740000 225 0 0
-2.076000 2.152000 2.740000 225 0 0
-2.551000 2.034000 2.738000 225 0 0
-2.018000 2.178000 2.740000 225 0 0
-2.622000 2.031000 2.737000 225 0 0
-2.017000 2.095000 2.741000 225 0 0
-2.225000 2.129000 2.739000 225 0 0
-1.974000 2.182000 2.740000 225 0 0
-2.335000 1.925000 2.739000 225 0 0
-2.066000 2.002000 2.741000 225 0 0
-2.431000 2.082000 2.738000 225 0 0
-2.175000 1.791000 2.741000 225 0 0
-2.313000 2.472000 2.739000 225 0 0
-2.424000 2.229000 2.738000 225 0 0
-2.307000 2.189000 2.739000 225 0 0
-2.447000 2.296000 2.738000 225 0 0
-2.358000 2.496000 2.739000 225 0 0
-2.037000 2.182000 2.740000 225 0 0
-2.193000 2.181000 2.739000 225 0 0
-2.422000 2.203000 2.738000 225 0 0
-2.506000 2.141000 2.738000 225 0 0
-2.222000 2.384000 2.739000 225 0 0
-2.317000 2.251000 2.739000 225 0 0
-2.109000 2.270000 2.740000 225 0 0
-2.143000 2.278000 2.740000 225 0 0
-2.279000 2.403000 2.739000 225 0 0
-2.365000 2.389000 2.739000 225 0 0
-2.317000 2.301000 2.739000 225 0 0
-2.157000 2.407000 2.740000 225 0 0
-2.218000 2.426000 2.739000 225 0 0
-2.566000 2.079000 2.737000 225 0 0
-2.248000 2.158000 2.739000 225 0 0
-2.144000 2.337000 2.740000 225 0 0
-2.341000 2.184000 2.739000 225 0 0
-2.246000 2.490000 2.739000 225 0 0
-2.074000 2.289000 2.740000 225 0 0
-2.161000 2.211000 2.739000 225 0 0
-2.194000 2.315000 2.739000 225 0 0
-2.086000 2.314000 2.740000 225 0 0
-2.407000 2.166000 2.738000 225 0 0
-2.203000 2.235000 2.739000 225 0 0
-2.263000 2.530000 2.739000 225 0 0
-2.154000 2.269000 2.740000 225 0 0
-2.298000 2.504000 2.739000 225 0 0
-2.314000 2.530000 2.739000 225 0 0
-2.514000 2.203000 2.738000 225 0 0
-2.572000 2.138000 2.737000 225 0 0
-2.340000 2.135000 2.738000 225 0 0
-2.263000 2.410000 2.739000 225 0 0
-2.190000 2.363000 2.739000 225 0 0
-2.409000 2.410000 2.738000 225 0 0
-2.057000 2.247000 2.740000 225 0 0
-2.243000 2.373000 2.739000 225 0 0
-2.258000 2.300000 2.739000 225 0 0
-2.329000 2.299000 2.739000 225 0 0
-2.240000 2.177000 2.739000 225 0 0
-2.461000 2.200000 2.738000 225 0 0
-2.370000 2.433000 2.739000 225 0 0
-2.252000 2.455000 2.739000 225 0 0
-2.084000 2.219000 2.740000 225 0 0
-2.333000 2.364000 2.739000 225 0 0
-2.333000 2.264000 2.739000 225 0 0
-2.303000 2.332000 2.739000 225 0 0
-2.385000 2.320000 2.738000 225 0 0
-2.475000 2.097000 2.738000 225 0 0
-2.100000 2.346000 2.740000 225 0 0
-2.275000 2.227000 2.739000 225 0 0
-2.436000 2.139000 2.738000 225 0 0
-2.445000 2.228000 2.738000 225 0 0
-2.310000 2.153000 2.739000 225 0 0
-2.418000 2.356000 2.738000 225 0 0
-1.993000 2.226000 2.740000 225 0 0
-2.321000 2.590000 2.739000 225 0 0
-2.218000 2.482000 2.739000 225 0 0
-2.171000 2.428000 2.740000 225 0 0
-2.405000 2.827000 2.740000 225 0 0
-2.467000 2.784000 2.740000 225 0 0
-2.350000 2.860000 2.740000 225 0 0
-2.507000 2.864000 2.740000 225 0 0
-2.322000 2.862000 2.740000 225 0 0
-2.372000 2.924000 2.740000 225 0 0
-2.427000 2.958000 2.740000 225 0 0
-2.265000 2.879000 2.739000 225 0 0
-2.274000 2.940000 2.740000 225 0 0
-2.363000 2.967000 2.740000 225 0 0
-2.418000 2.971000 2.740000 225 0 0
-2.349000 2.811000 2.740000 225 0 0
-2.402000 2.898000 2.740000 225 0 0
-2.310000 2.991000 2.740000 225 0 0
-2.294000 2.911000 2.740000 225 0 0
-2.203000 3.035000 2.740000 225 0 0
-2.485000 2.922000 2.740000 225 0 0
-2.406000 2.756000 2.740000 225 0 0
-2.282000 2.780000 2.739000 225 0 0
-2.450000 2.735000 2.740000 225 0 0
-2.379000 2.796000 2.740000 225 0 0
-2.550000 2.845000 2.740000 225 0 0
-2.200000 3.110000 2.740000 225 0 0
-2.226000 3.061000 2.740000 225 0 0
-2.304000 2.701000 2.739000 225 0 0
-2.284000 2.951000 2.740000 225 0 0
-2.328000 2.724000 2.739000 225 0 0
-2.486000 2.784000 2.740000 225 0 0
-2.273000 2.851000 2.739000 225 0 0
-2.330000 3.007000 2.740000 225 0 0
-2.302000 2.760000 2.739000 225 0 0
-2.374000 2.772000 2.740000 225 0 0
-2.433000 2.841000 2.740000 225 0 0
-2.218000 3.013000 2.740000 225 0 0
-2.246000 2.988000 2.740000 225 0 0
-2.432000 2.892000 2.740000 225 0 0
-2.260000 2.825000 2.739000 225 0 0
-2.316000 2.657000 2.739000 225 0 0
-2.249000 2.624000 2.739000 225 0 0
-1.876000 2.776000 2.738000 225 0 0
-2.102000 3.026000 2.739000 225 0 0
-2.045000 2.734000 2.738000 225 0 0
-2.091000 2.657000 2.738000 225 0 0
-2.141000 2.660000 2.738000 225 0 0
-2.063000 2.836000 2.738000 225 0 0
-2.130000 3.029000 2.739000 225 0 0
-2.190000 2.787000 2.739000 225 0 0
-1.977000 2.778000 2.738000 225 0 0
-2.232000 2.768000 2.739000 225 0 0
-1.982000 2.899000 2.738000 225 0 0
-2.112000 3.088000 2.739000 225 0 0
-1.877000 2.751000 2.737000 225 0 0
-2.094000 2.845000 2.739000 225 0 0
-2.175000 2.977000 2.739000 225 0 0
-2.132000 2.918000 2.739000 225 0 0
-2.257000 2.628000 2.739000 225 0 0
-2.112000 3.009000 2.739000 225 0 0
-2.182000 2.690000 2.739000 225 0 0
-2.173000 2.752000 2.739000 225 0 0
-2.141000 2.722000 2.739000 225 0 0
-1.987000 2.763000 2.738000 225 0 0
-1.845000 2.726000 2.737000 225 0 0
-2.206000 2.849000 2.739000 225 0 0
-1.973000 2.877000 2.738000 225 0 0
-2.067000 3.020000 2.739000 225 0 0
-1.933000 2.767000 2.738000 225 0 0
-2.079000 2.824000 2.739000 225 0 0
-2.009000 2.866000 2.738000 225 0 0
-2.169000 2.967000 2.739000 225 0 0
-2.212000 2.634000 2.739000 225 0 0
-2.209000 2.886000 2.739000 225 0 0
-1.944000 2.800000 2.738000 225 0 0
-2.026000 2.815000 2.738000 225 0 0
-1.883000 2.713000 2.737000 225 0 0
-2.194000 2.749000 2.739000 225 0 0
-2.241000 2.698000 2.739000 225 0 0
-2.130000 2.835000 2.739000 225 0 0
-2.112000 2.972000 2.739000 225 0 0
-2.159000 3.125000 2.740000 225 0 0
-2.190000 2.945000 2.739000 225 0 0
-1.953000 2.827000 2.738000 225 0 0
-2.044000 2.669000 2.738000 225 0 0
-2.098000 2.770000 2.738000 225 0 0
-1.806000 2.715000 2.737000 225 0 0
-2.125000 2.713000 2.738000 225 0 0
-2.046000 2.970000 2.739000 225 0 0
-1.905000 2.849000 2.738000 225 0 0
-2.109000 2.877000 2.739000 225 0 0
-2.073000 3.052000 2.739000 225 0 0
-2.066000 2.908000 2.739000 225 0 0
-2.012000 2.956000 2.739000 225 0 0
-2.016000 2.682000 2.738000 225 0 0
-1.849000 2.782000 2.737000 225 0 0
-2.134000 2.785000 2.739000 225 0 0
-1.851000 2.717000 2.737000 225 0 0
-1.997000 2.672000 2.738000 225 0 0
-2.043000 2.699000 2.738000 225 0 0
-2.018000 2.976000 2.739000 225 0 0
-1.939000 2.707000 2.738000 225 0 0
-1.947000 2.674000 2.738000 225 0 0
-1.825000 2.741000 2.737000 225 0 0
-2.073000 2.452000 2.739000 225 0 0
-1.981000 2.540000 2.738000 225 0 0
-1.829000 2.609000 2.738000 225 0 0
-1.813000 2.644000 2.737000 225 0 0
-2.112000 2.408000 2.740000 225 0 0
-1.960000 2.334000 2.740000 225 0 0
-1.871000 2.666000 2.737000 225 0 0
-2.092000 2.519000 2.739000 225 0 0
-2.122000 2.537000 2.739000 225 0 0
-1.910000 2.652000 2.738000 225 0 0
-1.956000 2.403000 2.739000 225 0 0
-2.152000 2.621000 2.738000 225 0 0
-2.169000 2.557000 2.739000 225 0 0
-2.024000 2.520000 2.739000 225 0 0
-1.893000 2.593000 2.738000 225 0 0
-2.138000 2.509000 2.739000 225 0 0
-1.894000 2.402000 2.739000 225 0 0
-2.210000 2.539000 2.739000 225 0 0
-1.858000 2.545000 2.738000 225 0 0
-1.986000 2.368000 2.739000 225 0 0
-2.013000 2.588000 2.738000 225 0 0
-1.949000 2.590000 2.738000 225 0 0
-2.212000 2.613000 2.739000 225 0 0
-1.972000 2.276000 2.740000 225 0 0
-1.966000 2.540000 2.738000 225 0 0
-1.980000 2.300000 2.740000 225 0 0
-1.934000 2.461000 2.739000 225 0 0
-2.022000 2.400000 2.739000 225 0 0
-1.916000 2.454000 2.739000 225 0 0
-2.072000 2.368000 2.740000 225 0 0
-1.951000 2.501000 2.739000 225 0 0
-2.089000 2.604000 2.738000 225 0 0
-1.920000 2.346000 2.739000 225 0 0
-2.124000 2.466000 2.739000 225 0 0
-1.897000 2.569000 2.738000 225 0 0
-1.908000 2.513000 2.738000 225 0 0
-1.866000 2.490000 2.738000 225 0 0
-2.056000 2.546000 2.739000 225 0 0
-1.968000 2.237000 2.740000 225 0 0
-2.071000 2.485000 2.739000 225 0 0
-2.065000 2.588000 2.738000 225 0 0
-2.057000 2.378000 2.740000 225 0 0
-2.012000 2.434000 2.739000 225 0 0
-1.874000 2.469000 2.739000 225 0 0
-1.820000 2.618000 2.738000 225 0 0
-1.954000 1.722000 2.743000 225 0 0
-1.854000 1.790000 2.744000 225 0 0
-1.892000 1.727000 2.743000 225 0 0
-1.873000 1.753000 2.744000 225 0 0
-1.739000 1.735000 2.743000 225 0 0
-1.810000 1.719000 2.743000 225 0 0
-1.942000 1.731000 2.743000 225 0 0
-1.994000 1.727000 2.743000 225 0 0
-1.707000 1.714000 2.743000 225 0 0
-1.745000 1.714000 2.743000 225 0 0
-1.799000 1.754000 2.744000 225 0 0
-1.821000 1.796000 2.744000 225 0 0
-2.036000 1.722000 2.743000 225 0 0
-1.721000 1.731000 2.743000 225 0 0
-1.985000 1.719000 2.743000 225 0 0
-1.887000 1.785000 2.744000 225 0 0
-1.919000 1.724000 2.743000 225 0 0
-1.865000 1.721000 2.743000 225 0 0
-2.034000 1.727000 2.743000 225 0 0
-2.063000 1.928000 2.741000 225 0 0
-1.987000 1.792000 2.743000 225 0 0
-1.928000 1.858000 2.743000 225 0 0
-1.917000 1.934000 2.743000 225 0 0
-2.117000 1.847000 2.741000 225 0 0
-1.986000 2.041000 2.741000 225 0 0
-1.992000 1.828000 2.743000 225 0 0
-1.956000 1.890000 2.743000 225 0 0
-1.954000 1.993000 2.742000 225 0 0
-1.966000 2.174000 2.741000 225 0 0
-1.921000 2.022000 2.742000 225 0 0
-2.019000 1.946000 2.742000 225 0 0
-2.062000 1.801000 2.742000 225 0 0
-1.916000 1.827000 2.744000 225 0 0
-1.943000 1.776000 2.744000 225 0 0
-2.158000 1.757000 2.742000 225 0 0
-1.945000 2.027000 2.742000 225 0 0
-2.131000 1.724000 2.742000 225 0 0
-1.996000 1.902000 2.742000 225 0 0
-2.119000 1.795000 2.742000 225 0 0
-2.098000 1.712000 2.743000 225 0 0
-1.998000 2.020000 2.741000 225 0 0
-1.971000 1.926000 2.742000 225 0 0
-1.970000 2.117000 2.741000 225 0 0
-1.898000 1.901000 2.743000 225 0 0
-2.061000 1.921000 2.741000 225 0 0
-1.865000 1.868000 2.744000 225 0 0
-2.031000 1.868000 2.742000 225 0 0
-2.089000 1.763000 2.742000 225 0 0
-1.918000 2.042000 2.742000 225 0 0
-1.871000 1.890000 2.744000 225 0 0
-1.933000 2.969000 2.738000 225 0 0
-2.068000 3.163000 2.739000 225 0 0
-2.016000 3.071000 2.739000 225 0 0
-1.835000 2.944000 2.738000 225 0 0
-1.928000 3.108000 2.739000 225 0 0
-1.876000 2.891000 2.738000 225 0 0
-1.996000 3.131000 2.739000 225 0 0
-1.959000 3.126000 2.739000 225 0 0
-2.010000 3.115000 2.739000 225 0 0
-1.922000 3.046000 2.738000 225 0 0
-1.942000 3.003000 2.738000 225 0 0
-1.932000 3.052000 2.738000 225 0 0
-1.924000 2.968000 2.738000 225 0 0
-1.857000 2.998000 2.738000 225 0 0
-1.852000 3.082000 2.738000 225 0 0
-2.039000 3.087000 2.739000 225 0 0
-1.878000 3.009000 2.738000 225 0 0
-2.106000 3.135000 2.739000 225 0 0
-1.902000 3.145000 2.739000 225 0 0
-1.865000 3.067000 2.738000 225 0 0
-1.846000 2.905000 2.738000 225 0 0
-1.825000 2.799000 2.737000 225 0 0
-1.910000 3.124000 2.739000 225 0 0
-1.865000 3.146000 2.738000 225 0 0
-1.840000 2.873000 2.738000 225 0 0
-1.817000 2.873000 2.737000 225 0 0
-1.823000 2.884000 2.738000 225 0 0
-1.824000 2.928000 2.738000 225 0 0
-1.674000 3.045000 2.738000 225 0 0
-1.675000 3.113000 2.738000 225 0 0
-1.650000 3.108000 2.738000 225 0 0
-1.766000 2.768000 2.737000 225 0 0
-1.666000 3.148000 2.738000 225 0 0
-1.705000 2.987000 2.738000 225 0 0
-1.759000 2.804000 2.737000 225 0 0
-1.697000 3.039000 2.738000 225 0 0
-1.705000 2.927000 2.737000 225 0 0
-1.736000 2.869000 2.737000 225 0 0
-1.722000 2.901000 2.737000 225 0 0
-1.728000 2.876000 2.737000 225 0 0
-1.672000 3.008000 2.737000 225 0 0
-1.675000 3.138000 2.739000 225 0 0
-1.768000 3.053000 2.738000 225 0 0
-1.738000 3.095000 2.738000 225 0 0
-1.764000 2.984000 2.738000 225 0 0
-1.730000 3.131000 2.738000 225 0 0
-1.793000 3.028000 2.738000 225 0 0
-1.824000 2.991000 2.738000 225 0 0
-1.758000 2.957000 2.738000 225 0 0
-1.806000 3.099000 2.738000 225 0 0
-1.796000 3.132000 2.738000 225 0 0
-1.653000 1.720000 2.745000 225 0 0
-1.853000 2.339000 2.740000 225 0 0
-1.871000 2.112000 2.742000 225 0 0
-1.822000 2.303000 2.740000 225 0 0
-1.829000 2.154000 2.742000 225 0 0
-1.858000 1.986000 2.743000 225 0 0
-1.900000 2.142000 2.741000 225 0 0
-1.915000 2.117000 2.741000 225 0 0
-1.802000 2.442000 2.739000 225 0 0
-1.822000 2.230000 2.741000 225 0 0
-1.872000 1.935000 2.743000 225 0 0
-1.860000 2.386000 2.739000 225 0 0
-1.911000 2.271000 2.740000 225 0 0
-1.811000 2.479000 2.739000 225 0 0
-1.808000 2.537000 2.738000 225 0 0
-1.901000 2.222000 2.741000 225 0 0
-1.890000 2.281000 2.740000 225 0 0
-1.831000 2.034000 2.743000 225 0 0
-1.874000 2.259000 2.740000 225 0 0
-1.835000 2.286000 2.740000 225 0 0
-1.848000 2.195000 2.741000 225 0 0
-1.823000 2.416000 2.739000 225 0 0
-1.819000 2.187000 2.741000 225 0 0
-1.810000 2.339000 2.740000 225 0 0
-1.823000 2.132000 2.742000 225 0 0
-1.573000 2.493000 2.738000 225 0 0
-1.719000 2.398000 2.739000 225 0 0
-1.704000 2.537000 2.738000 225 0 0
-1.681000 2.453000 2.739000 225 0 0
-1.773000 2.381000 2.740000 225 0 0
-1.568000 2.207000 2.740000 225 0 0
-1.714000 2.373000 2.739000 225 0 0
-1.689000 2.488000 2.738000 225 0 0
-1.658000 2.207000 2.740000 225 0 0
-1.763000 2.515000 2.738000 225 0 0
-1.632000 2.521000 2.738000 225 0 0
-1.535000 2.278000 2.739000 225 0 0
-1.610000 2.336000 2.739000 225 0 0
-1.781000 1.915000 2.743000 225 0 0
-1.735000 2.091000 2.742000 225 0 0
-1.699000 2.053000 2.742000 225 0 0
-1.573000 2.565000 2.737000 225 0 0
-1.760000 2.669000 2.737000 225 0 0
-1.756000 2.053000 2.742000 225 0 0
-1.715000 2.197000 2.741000 225 0 0
-1.572000 2.371000 2.739000 225 0 0
-1.591000 2.583000 2.737000 225 0 0
-1.814000 1.929000 2.743000 225 0 0
-1.811000 1.865000 2.744000 225 0 0
-1.725000 2.647000 2.737000 225 0 0
-1.594000 2.204000 2.740000 225 0 0
-1.638000 2.093000 2.741000 225 0 0
-1.824000 2.053000 2.742000 225 0 0
-1.600000 2.382000 2.739000 225 0 0
-1.615000 2.536000 2.738000 225 0 0
-1.534000 2.460000 2.738000 225 0 0
-1.501000 2.452000 2.738000 225 0 0
-1.628000 2.416000 2.739000 225 0 0
-1.543000 2.381000 2.738000 225 0 0
-1.615000 2.513000 2.738000 225 0 0
-1.710000 2.252000 2.740000 225 0 0
-1.630000 2.359000 2.739000 225 0 0
-1.736000 2.315000 2.740000 225 0 0
-1.512000 2.362000 2.738000 225 0 0
-1.667000 2.145000 2.741000 225 0 0
-1.504000 2.547000 2.737000 225 0 0
-1.574000 2.237000 2.740000 225 0 0
-1.767000 2.232000 2.741000 225 0 0
-1.747000 2.548000 2.738000 225 0 0
-1.653000 2.436000 2.739000 225 0 0
-1.525000 2.225000 2.740000 225 0 0
-1.781000 2.023000 2.743000 225 0 0
-1.726000 2.586000 2.738000 225 0 0
-1.653000 2.260000 2.740000 225 0 0
-1.754000 2.018000 2.742000 225 0 0
-1.696000 2.165000 2.741000 225 0 0
-1.512000 2.249000 2.739000 225 0 0
-1.614000 2.237000 2.740000 225 0 0
-1.517000 2.507000 2.737000 225 0 0
-1.638000 2.315000 2.739000 225 0 0
-1.703000 2.587000 2.738000 225 0 0
-1.767000 2.223000 2.741000 225 0 0
-1.750000 2.683000 2.737000 225 0 0
-1.661000 2.069000 2.742000 225 0 0
-1.623000 2.175000 2.741000 225 0 0
-1.768000 1.942000 2.743000 225 0 0
-1.630000 2.556000 2.737000 225 0 0
-1.725000 2.015000 2.742000 225 0 0
-1.745000 2.454000 2.739000 225 0 0
-1.787000 2.108000 2.742000 225 0 0
-1.660000 2.594000 2.737000 225 0 0
-1.569000 2.581000 2.737000 225 0 0
-1.583000 2.301000 2.739000 225 0 0
-1.740000 2.367000 2.740000 225 0 0
-1.775000 1.922000 2.743000 225 0 0
-1.699000 2.287000 2.740000 225 0 0
-1.763000 2.164000 2.741000 225 0 0
-1.684000 2.094000 2.741000 225 0 0
-1.624000 2.467000 2.738000 225 0 0
-1.560000 2.175000 2.740000 225 0 0
-1.503000 2.378000 2.738000 225 0 0
-1.671000 2.642000 2.737000 225 0 0
-1.608000 2.124000 2.741000 225 0 0
-1.511000 2.283000 2.739000 225 0 0
-1.725000 1.967000 2.743000 225 0 0
-1.513000 1.777000 2.744000 225 0 0
-1.660000 1.746000 2.745000 225 0 0
-1.693000 1.793000 2.745000 225 0 0
-1.680000 1.841000 2.744000 225 0 0
-1.554000 1.891000 2.744000 225 0 0
-1.597000 1.854000 2.744000 225 0 0
-1.547000 1.828000 2.744000 225 0 0
-1.513000 1.740000 2.745000 225 0 0
-1.542000 1.748000 2.745000 225 0 0
-1.608000 1.815000 2.744000 225 0 0
-1.729000 1.852000 2.744000 225 0 0
-1.728000 1.807000 2.744000 225 0 0
-1.558000 1.821000 2.744000 225 0 0
-1.611000 1.726000 2.745000 225 0 0
-1.670000 1.819000 2.744000 225 0 0
-1.515000 1.832000 2.744000 225 0 0
-1.633000 1.873000 2.744000 225 0 0
-1.598000 1.882000 2.744000 225 0 0
-1.666000 1.875000 2.744000 225 0 0
-1.586000 1.715000 2.745000 225 0 0
-1.504000 1.890000 2.744000 225 0 0
-1.510000 1.940000 2.743000 225 0 0
-1.568000 1.718000 2.745000 225 0 0
-1.536000 1.933000 2.744000 225 0 0
-1.522000 1.712000 2.745000 225 0 0
-1.622000 3.100000 2.737000 225 0 0
-1.591000 2.816000 2.737000 225 0 0
-1.649000 2.957000 2.737000 225 0 0
-1.604000 3.046000 2.737000 225 0 0
-1.598000 2.851000 2.737000 225 0 0
-1.524000 2.902000 2.737000 225 0 0
-1.504000 2.937000 2.737000 225 0 0
-1.669000 2.773000 2.737000 225 0 0
-1.718000 2.827000 2.737000 225 0 0
-1.545000 2.805000 2.737000 225 0 0
-1.535000 2.998000 2.737000 225 0 0
-1.721000 2.749000 2.737000 225 0 0
-1.550000 3.068000 2.737000 225 0 0
-1.549000 2.972000 2.737000 225 0 0
-1.523000 2.804000 2.737000 225 0 0
-1.653000 2.837000 2.737000 225 0 0
-1.619000 2.880000 2.737000 225 0 0
-1.660000 2.813000 2.737000 225 0 0
-1.619000 2.937000 2.737000 225 0 0
-1.717000 2.806000 2.737000 225 0 0
-1.501000 2.989000 2.737000 225 0 0
-1.517000 3.048000 2.737000 225 0 0
-1.653000 2.909000 2.737000 225 0 0
-1.600000 2.989000 2.737000 225 0 0
-1.542000 2.895000 2.737000 225 0 0
-1.543000 3.079000 2.737000 225 0 0
-1.619000 3.127000 2.737000 225 0 0
-1.505000 2.865000 2.737000 225 0 0
-1.560000 2.836000 2.737000 225 0 0
-1.599000 2.773000 2.737000 225 0 0
-1.533000 2.084000 2.742000 225 0 0
-1.512000 2.044000 2.742000 225 0 0
-1.649000 1.997000 2.742000 225 0 0
-1.712000 1.878000 2.744000 225 0 0
-1.510000 2.168000 2.740000 225 0 0
-1.581000 2.020000 2.742000 225 0 0
-1.594000 2.037000 2.742000 225 0 0
-1.582000 1.953000 2.743000 225 0 0
-1.506000 1.993000 2.743000 225 0 0
-1.555000 2.007000 2.743000 225 0 0
-1.513000 2.076000 2.742000 225 0 0
-1.574000 2.035000 2.742000 225 0 0
-1.663000 1.969000 2.743000 225 0 0
-1.560000 2.682000 2.737000 225 0 0
-1.606000 2.676000 2.737000 225 0 0
-1.545000 2.659000 2.737000 225 0 0
-1.626000 2.707000 2.737000 225 0 0
-1.690000 2.701000 2.737000 225 0 0
-1.614000 2.631000 2.737000 225 0 0
-1.560000 2.772000 2.737000 225 0 0
-1.515000 2.749000 2.737000 225 0 0
-1.517000 2.675000 2.737000 225 0 0
-1.523000 2.676000 2.737000 225 0 0
-1.519000 2.621000 2.737000 225 0 0
-1.555000 3.152000 2.737000 225 0 0
-1.509000 3.111000 2.737000 225 0 0
-1.501000 3.129000 2.737000 225 0 0
-5.176000 2.968000 2.728000 225 0 0
-3.822000 3.227000 2.736000 225 0 0
-3.796000 3.444000 2.732000 225 0 0
-3.795000 3.482000 2.731000 225 0 0
-3.806000 3.295000 2.734000 225 0 0
-3.806000 3.414000 2.733000 225 0 0
-3.822000 3.370000 2.735000 225 0 0
-3.776000 3.430000 2.723000 225 0 0
-3.774000 3.412000 2.723000 225 0 0
-3.769000 3.450000 2.721000 225 0 0
-3.777000 3.420000 2.724000 225 0 0
-3.760000 3.391000 2.727000 225 0 0
-3.771000 3.345000 2.729000 225 0 0
-3.646000 3.327000 2.724000 225 0 0
-3.709000 3.265000 2.728000 225 0 0
-3.702000 3.320000 2.727000 225 0 0
-3.608000 3.410000 2.720000 225 0 0
-3.729000 3.284000 2.729000 225 0 0
-3.683000 3.395000 2.724000 225 0 0
-3.772000 3.245000 2.732000 225 0 0
-3.568000 3.413000 2.718000 225 0 0
-3.586000 3.371000 2.720000 225 0 0
-3.628000 3.409000 2.721000 225 0 0
-3.705000 3.354000 2.726000 225 0 0
-3.678000 3.374000 2.724000 225 0 0
-3.722000 3.378000 2.726000 225 0 0
-3.673000 3.299000 2.726000 225 0 0
-3.630000 3.316000 2.723000 225 0 0
-3.566000 3.374000 2.719000 225 0 0
-3.673000 3.260000 2.729000 225 0 0
-3.609000 3.284000 2.729000 225 0 0
-3.451000 3.397000 2.721000 225 0 0
-3.603000 3.319000 2.724000 225 0 0
-3.404000 3.405000 2.722000 225 0 0
-3.520000 3.332000 2.726000 225 0 0
-3.490000 3.416000 2.716000 225 0 0
-3.570000 3.305000 2.728000 225 0 0
-3.458000 3.361000 2.725000 225 0 0
-3.480000 3.362000 2.724000 225 0 0
-3.425000 3.306000 2.728000 225 0 0
-3.420000 3.350000 2.726000 225 0 0
-3.624000 3.257000 2.731000 225 0 0
-3.489000 3.284000 2.730000 225 0 0
-3.460000 3.352000 2.726000 225 0 0
-3.351000 3.253000 2.732000 225 0 0
-3.367000 3.316000 2.728000 225 0 0
-3.373000 3.399000 2.723000 225 0 0
-3.260000 3.255000 2.732000 225 0 0
-3.282000 3.284000 2.730000 225 0 0
-3.405000 3.258000 2.731000 225 0 0
-3.540000 3.255000 2.731000 225 0 0
-3.515000 3.254000 2.731000 225 0 0
-3.428000 3.317000 2.728000 225 0 0
-3.451000 3.249000 2.732000 225 0 0
-3.364000 3.340000 2.727000 225 0 0
-3.301000 3.232000 2.733000 225 0 0
-3.315000 3.330000 2.727000 225 0 0
-3.366000 3.366000 2.725000 225 0 0
-3.416000 3.362000 2.725000 225 0 0
-3.063000 3.188000 2.737000 225 0 0
-3.268000 3.398000 2.722000 225 0 0
-3.273000 3.338000 2.726000 225 0 0
-3.314000 3.367000 2.725000 225 0 0
-3.318000 3.382000 2.724000 225 0 0
-3.268000 3.325000 2.727000 225 0 0
-3.270000 3.355000 2.725000 225 0 0
-3.177000 3.401000 2.710000 225 0 0
-3.197000 3.349000 2.717000 225 0 0
-3.168000 3.420000 2.706000 225 0 0
-3.223000 3.298000 2.726000 225 0 0
-3.219000 3.309000 2.724000 225 0 0
-3.222000 3.274000 2.727000 225 0 0
-3.165000 3.427000 2.705000 225 0 0
-3.163000 3.324000 2.714000 225 0 0
-3.166000 3.344000 2.713000 225 0 0
-3.203000 3.273000 2.724000 225 0 0
-1.467000 2.522000 2.737000 225 0 0
-1.442000 2.351000 2.738000 225 0 0
-1.446000 2.450000 2.737000 225 0 0
-1.377000 2.462000 2.737000 225 0 0
-1.442000 2.375000 2.738000 225 0 0
-1.405000 2.374000 2.738000 225 0 0
-1.343000 2.462000 2.737000 225 0 0
-1.376000 2.413000 2.737000 225 0 0
-1.363000 2.421000 2.737000 225 0 0
-1.411000 2.484000 2.737000 225 0 0
-1.463000 2.294000 2.739000 225 0 0
-1.372000 2.482000 2.737000 225 0 0
-1.463000 2.528000 2.737000 225 0 0
-1.416000 1.863000 2.744000 225 0 0
-1.383000 1.925000 2.743000 225 0 0
-1.323000 2.016000 2.743000 225 0 0
-1.432000 1.840000 2.744000 225 0 0
-1.354000 1.999000 2.743000 225 0 0
-1.352000 1.928000 2.743000 225 0 0
-1.432000 1.952000 2.743000 225 0 0
-1.473000 1.895000 2.744000 225 0 0
-1.372000 1.904000 2.744000 225 0 0
-1.378000 1.986000 2.743000 225 0 0
-1.420000 1.945000 2.743000 225 0 0
-1.438000 1.975000 2.743000 225 0 0
-1.460000 1.800000 2.744000 225 0 0
-1.284000 2.030000 2.743000 225 0 0
-1.274000 2.033000 2.743000 225 0 0
-1.464000 1.774000 2.744000 225 0 0
-1.316000 1.968000 2.743000 225 0 0
-1.433000 2.912000 2.738000 225 0 0
-1.465000 2.816000 2.738000 225 0 0
-1.426000 2.940000 2.738000 225 0 0
-1.414000 2.829000 2.738000 225 0 0
-1.409000 2.956000 2.738000 225 0 0
-1.379000 2.907000 2.738000 225 0 0
-1.440000 2.833000 2.738000 225 0 0
-1.292000 2.890000 2.738000 225 0 0
-1.242000 2.875000 2.738000 225 0 0
-1.461000 3.026000 2.738000 225 0 0
-1.415000 2.982000 2.738000 225 0 0
-1.328000 2.873000 2.738000 225 0 0
-1.472000 2.997000 2.738000 225 0 0
-1.373000 2.957000 2.738000 225 0 0
-1.362000 2.905000 2.738000 225 0 0
-1.323000 2.872000 2.738000 225 0 0
-1.416000 2.824000 2.738000 225 0 0
-1.269000 2.872000 2.738000 225 0 0
-1.313000 2.339000 2.739000 225 0 0
-1.353000 2.307000 2.739000 225 0 0
-1.431000 2.165000 2.741000 225 0 0
-1.383000 2.206000 2.740000 225 0 0
-1.414000 2.074000 2.742000 225 0 0
-1.319000 2.185000 2.741000 225 0 0
-1.393000 2.141000 2.741000 225 0 0
-1.450000 2.048000 2.742000 225 0 0
-1.364000 2.107000 2.742000 225 0 0
-1.394000 2.309000 2.739000 225 0 0
-1.450000 2.215000 2.740000 225 0 0
-1.362000 2.183000 2.741000 225 0 0
-1.299000 2.272000 2.739000 225 0 0
-1.372000 2.373000 2.738000 225 0 0
-1.441000 2.253000 2.739000 225 0 0
-1.370000 2.036000 2.743000 225 0 0
-1.421000 2.094000 2.742000 225 0 0
-1.460000 2.097000 2.742000 225 0 0
-1.310000 2.316000 2.739000 225 0 0
-1.404000 2.258000 2.739000 225 0 0
-1.272000 2.149000 2.741000 225 0 0
-1.341000 2.242000 2.740000 225 0 0
-1.286000 2.169000 2.741000 225 0 0
-1.273000 2.114000 2.742000 225 0 0
-1.358000 2.143000 2.741000 225 0 0
-1.291000 2.118000 2.742000 225 0 0
-1.319000 2.406000 2.738000 225 0 0
-1.410000 2.541000 2.737000 225 0 0
-1.364000 2.551000 2.737000 225 0 0
-1.436000 2.617000 2.737000 225 0 0
-1.339000 2.698000 2.737000 225 0 0
-1.351000 2.646000 2.737000 225 0 0
-1.434000 2.738000 2.737000 225 0 0
-1.305000 2.568000 2.737000 225 0 0
-1.326000 2.732000 2.738000 225 0 0
-1.303000 2.705000 2.738000 225 0 0
-1.325000 2.485000 2.737000 225 0 0
-1.457000 2.670000 2.737000 225 0 0
-1.395000 2.624000 2.737000 225 0 0
-1.407000 2.761000 2.738000 225 0 0
-1.383000 2.633000 2.737000 225 0 0
-1.469000 2.692000 2.737000 225 0 0
-1.391000 2.700000 2.737000 225 0 0
-1.367000 2.788000 2.738000 225 0 0
-1.373000 2.592000 2.737000 225 0 0
-1.295000 2.668000 2.737000 225 0 0
-1.299000 2.758000 2.738000 225 0 0
-1.301000 2.779000 2.738000 225 0 0
-1.275000 2.720000 2.738000 225 0 0
-1.320000 2.582000 2.737000 225 0 0
-1.270000 2.798000 2.738000 225 0 0
-1.274000 2.769000 2.738000 225 0 0
-1.324000 2.956000 2.738000 225 0 0
-1.355000 2.979000 2.738000 225 0 0
-1.447000 3.077000 2.737000 225 0 0
-1.410000 3.047000 2.737000 225 0 0
-1.335000 3.098000 2.735000 225 0 0
-1.264000 3.020000 2.735000 225 0 0
-1.434000 3.157000 2.735000 225 0 0
-1.333000 3.133000 2.734000 225 0 0
-1.226000 3.123000 2.732000 225 0 0
-1.265000 3.133000 2.733000 225 0 0
-1.409000 3.140000 2.735000 225 0 0
-1.276000 3.134000 2.733000 225 0 0
-1.254000 2.961000 2.736000 225 0 0
-1.321000 3.002000 2.737000 225 0 0
-1.398000 3.096000 2.736000 225 0 0
-1.262000 3.073000 2.734000 225 0 0
-1.347000 3.035000 2.737000 225 0 0
-1.307000 3.114000 2.734000 225 0 0
-1.313000 3.034000 2.736000 225 0 0
-1.215000 3.126000 2.732000 225 0 0
-1.440000 1.712000 2.748000 225 0 0
-1.354000 1.857000 2.746000 225 0 0
-1.304000 1.841000 2.749000 225 0 0
-1.413000 1.825000 2.745000 225 0 0
-1.414000 1.775000 2.747000 225 0 0
-1.270000 1.977000 2.745000 225 0 0
-1.342000 1.728000 2.752000 225 0 0
-1.309000 1.815000 2.750000 225 0 0
-1.330000 1.777000 2.750000 225 0 0
-1.307000 1.918000 2.746000 225 0 0
-1.336000 1.714000 2.753000 225 0 0
-1.395000 1.709000 2.750000 225 0 0
-1.325000 1.766000 2.751000 225 0 0
-1.251000 1.728000 2.738000 225 0 0
-1.258000 1.710000 2.736000 225 0 0
-1.238000 2.401000 2.740000 225 0 0
-1.228000 2.454000 2.740000 225 0 0
-1.267000 2.346000 2.740000 225 0 0
-1.229000 2.249000 2.742000 225 0 0
-1.292000 2.439000 2.738000 225 0 0
-1.262000 2.206000 2.741000 225 0 0
-1.226000 2.325000 2.741000 225 0 0
-1.222000 2.325000 2.741000 225 0 0
-1.231000 2.478000 2.739000 225 0 0
-1.225000 2.154000 2.742000 225 0 0
-1.225000 2.221000 2.742000 225 0 0
-1.232000 1.961000 2.738000 225 0 0
-1.253000 1.914000 2.741000 225 0 0
-1.237000 1.784000 2.738000 225 0 0
-1.242000 1.830000 2.739000 225 0 0
-1.311000 1.710000 2.750000 225 0 0
-1.227000 2.663000 2.739000 225 0 0
-1.241000 2.607000 2.739000 225 0 0
-1.246000 2.547000 2.739000 225 0 0
-5.168000 1.446000 2.718000 225 0 0
-5.128000 1.492000 2.719000 225 0 0
-4.989000 1.505000 2.719000 225 0 0
-5.136000 1.350000 2.716000 225 0 0
-5.046000 1.437000 2.718000 225 0 0
-5.030000 1.407000 2.717000 225 0 0
-5.110000 1.495000 2.719000 225 0 0
-4.928000 1.522000 2.719000 225 0 0
-5.085000 1.450000 2.718000 225 0 0
-5.072000 1.503000 2.719000 225 0 0
-5.069000 1.579000 2.720000 225 0 0
-5.023000 1.421000 2.717000 225 0 0
-5.053000 1.526000 2.719000 225 0 0
-5.080000 1.383000 2.717000 225 0 0
-4.904000 1.526000 2.719000 225 0 0
-4.826000 1.499000 2.718000 225 0 0
-5.145000 1.527000 2.719000 225 0 0
-4.904000 1.495000 2.718000 225 0 0
-4.895000 1.458000 2.718000 225 0 0
-4.976000 1.459000 2.718000 225 0 0
-5.157000 1.588000 2.720000 225 0 0
-5.105000 1.360000 2.717000 225 0 0
-5.100000 1.579000 2.720000 225 0 0
-4.926000 1.463000 2.718000 225 0 0
-5.002000 1.526000 2.719000 225 0 0
-4.824000 1.518000 2.719000 225 0 0
-5.094000 1.566000 2.720000 225 0 0
-5.162000 1.417000 2.717000 225 0 0
-4.975000 1.555000 2.719000 225 0 0
-4.850000 1.534000 2.719000 225 0 0
-4.963000 1.424000 2.717000 225 0 0
-4.866000 1.474000 2.718000 225 0 0
-4.807000 1.526000 2.719000 225 0 0
-5.157000 1.321000 2.716000 225 0 0
-4.661000 1.364000 2.715000 225 0 0
-4.871000 1.399000 2.716000 225 0 0
-4.696000 1.343000 2.714000 225 0 0
-4.821000 1.340000 2.715000 225 0 0
-4.788000 1.322000 2.714000 225 0 0
-4.922000 1.332000 2.715000 225 0 0
-5.008000 1.324000 2.715000 225 0 0
-4.727000 1.353000 2.715000 225 0 0
-4.954000 1.322000 2.715000 225 0 0
-4.758000 1.506000 2.718000 225 0 0
-4.744000 1.451000 2.717000 225 0 0
-5.078000 1.324000 2.716000 225 0 0
-4.654000 1.324000 2.714000 225 0 0
-4.662000 1.378000 2.715000 225 0 0
-5.026000 1.336000 2.716000 225 0 0
-4.611000 1.336000 2.714000 225 0 0
-4.689000 1.381000 2.715000 225 0 0
-4.965000 1.358000 2.716000 225 0 0
-4.904000 1.382000 2.716000 225 0 0
-4.991000 1.337000 2.716000 225 0 0
-4.824000 1.468000 2.718000 225 0 0
-4.778000 1.398000 2.716000 225 0 0
-4.739000 1.390000 2.715000 225 0 0
-5.054000 1.322000 2.716000 225 0 0
-4.849000 1.342000 2.715000 225 0 0
-4.693000 1.429000 2.716000 225 0 0
-4.724000 1.322000 2.714000 225 0 0
-4.922000 1.321000 2.715000 225 0 0
-4.619000 1.323000 2.713000 225 0 0
-4.865000 1.324000 2.715000 225 0 0
-5.110000 1.723000 2.722000 225 0 0
-5.111000 1.672000 2.721000 225 0 0
-5.072000 1.682000 2.721000 225 0 0
-5.012000 1.714000 2.721000 225 0 0
-4.975000 1.648000 2.720000 225 0 0
-4.782000 1.622000 2.720000 225 0 0
-4.752000 1.604000 2.720000 225 0 0
-4.944000 1.576000 2.720000 225 0 0
-4.915000 1.641000 2.720000 225 0 0
-4.822000 1.657000 2.720000 225 0 0
-4.891000 1.579000 2.719000 225 0 0
-4.853000 1.629000 2.720000 225 0 0
-4.665000 1.684000 2.720000 225 0 0
-5.029000 1.656000 2.721000 225 0 0
-4.844000 1.713000 2.721000 225 0 0
-5.024000 1.662000 2.721000 225 0 0
-4.721000 1.626000 2.720000 225 0 0
-4.927000 1.711000 2.721000 225 0 0
-4.815000 1.711000 2.721000 225 0 0
-4.774000 1.676000 2.721000 225 0 0
-4.755000 1.575000 2.719000 225 0 0
-4.758000 1.655000 2.720000 225 0 0
-4.834000 1.599000 2.720000 225 0 0
-4.706000 1.685000 2.721000 225 0 0
-4.884000 1.703000 2.721000 225 0 0
-4.976000 1.576000 2.720000 225 0 0
-4.712000 1.614000 2.720000 225 0 0
-4.582000 1.486000 2.717000 225 0 0
-4.634000 1.529000 2.718000 225 0 0
-4.556000 1.538000 2.718000 225 0 0
-4.459000 1.448000 2.716000 225 0 0
-4.554000 1.443000 2.716000 225 0 0
-4.472000 1.537000 2.718000 225 0 0
-4.707000 1.488000 2.718000 225 0 0
-4.420000 1.537000 2.718000 225 0 0
-4.663000 1.474000 2.717000 225 0 0
-4.504000 1.420000 2.715000 225 0 0
-4.549000 1.521000 2.718000 225 0 0
-4.484000 1.472000 2.717000 225 0 0
-4.403000 1.502000 2.717000 225 0 0
-4.584000 1.419000 2.716000 225 0 0
-4.626000 1.477000 2.717000 225 0 0
-4.429000 1.502000 2.717000 225 0 0
-4.365000 1.527000 2.718000 225 0 0
-4.511000 1.488000 2.717000 225 0 0
-4.613000 1.429000 2.716000 225 0 0
-4.486000 1.536000 2.718000 225 0 0
-4.570000 1.378000 2.715000 225 0 0
-4.568000 1.366000 2.714000 225 0 0
-4.619000 1.537000 2.719000 225 0 0
-4.690000 1.526000 2.718000 225 0 0
-4.424000 1.627000 2.719000 225 0 0
-4.319000 1.577000 2.719000 225 0 0
-4.442000 1.577000 2.719000 225 0 0
-4.592000 1.618000 2.720000 225 0 0
-4.593000 1.640000 2.720000 225 0 0
-4.529000 1.620000 2.720000 225 0 0
-4.481000 1.623000 2.719000 225 0 0
-4.329000 1.672000 2.720000 225 0 0
-4.377000 1.576000 2.719000 225 0 0
-4.330000 1.622000 2.719000 225 0 0
-4.522000 1.661000 2.720000 225 0 0
-4.388000 1.708000 2.720000 225 0 0
-4.460000 1.703000 2.720000 225 0 0
-4.460000 1.667000 2.720000 225 0 0
-4.657000 1.579000 2.719000 225 0 0
-4.562000 1.715000 2.721000 225 0 0
-4.481000 1.677000 2.720000 225 0 0
-4.356000 1.714000 2.720000 225 0 0
-4.576000 1.725000 2.721000 225 0 0
-4.661000 1.643000 2.720000 225 0 0
-4.527000 1.648000 2.720000 225 0 0
-4.322000 1.575000 2.719000 225 0 0
-4.388000 1.465000 2.716000 225 0 0
-4.451000 1.404000 2.715000 225 0 0
-4.314000 1.357000 2.714000 225 0 0
-4.500000 1.330000 2.713000 225 0 0
-4.185000 1.343000 2.713000 225 0 0
-4.374000 1.455000 2.716000 225 0 0
-4.373000 1.482000 2.717000 225 0 0
-4.169000 1.344000 2.713000 225 0 0
-4.244000 1.505000 2.717000 225 0 0
-4.270000 1.388000 2.714000 225 0 0
-4.109000 1.415000 2.715000 225 0 0
-4.056000 1.352000 2.713000 225 0 0
-4.209000 1.399000 2.715000 225 0 0
-4.379000 1.347000 2.714000 225 0 0
-4.461000 1.331000 2.713000 225 0 0
-4.316000 1.464000 2.716000 225 0 0
-4.392000 1.389000 2.715000 225 0 0
-4.003000 1.356000 2.713000 225 0 0
-4.349000 1.364000 2.714000 225 0 0
-4.253000 1.426000 2.715000 225 0 0
-4.106000 1.341000 2.713000 225 0 0
-4.251000 1.333000 2.713000 225 0 0
-4.210000 1.491000 2.717000 225 0 0
-4.157000 1.447000 2.716000 225 0 0
-4.363000 1.417000 2.715000 225 0 0
-4.280000 1.487000 2.717000 225 0 0
-4.182000 1.454000 2.716000 225 0 0
-4.168000 1.405000 2.715000 225 0 0
-4.289000 1.395000 2.715000 225 0 0
-4.068000 1.391000 2.714000 225 0 0
-4.518000 1.324000 2.713000 225 0 0
-4.205000 1.325000 2.713000 225 0 0
-4.109000 1.427000 2.715000 225 0 0
-4.435000 1.324000 2.713000 225 0 0
-4.542000 1.324000 2.713000 225 0 0
-4.352000 1.324000 2.713000 225 0 0
-4.248000 1.325000 2.713000 225 0 0
-4.181000 1.649000 2.721000 225 0 0
-4.121000 1.661000 2.721000 225 0 0
-4.196000 1.614000 2.720000 225 0 0
-4.010000 1.671000 2.721000 225 0 0
-4.067000 1.656000 2.721000 225 0 0
-4.130000 1.621000 2.720000 225 0 0
