ply
format ascii 1.0
element vertex 1181
property float x
property float y
property float z
property uchar r
property uchar g
property uchar b
end_header
0.966872 0.005010 0.832928 255 255 255
0.590234 0.019877 0.799444 255 255 255
0.130350 0.006620 0.518394 255 255 255
0.570971 -0.011019 0.281221 255 255 255
-0.003651 0.004557 0.256294 255 255 255
0.202530 0.007265 0.883003 255 255 255
0.945991 0.000965 0.086219 255 255 255
0.333411 -0.007427 0.579908 255 255 255
0.652182 0.015620 0.493853 255 255 255
0.285570 -0.015206 0.500607 255 255 255
0.947840 -0.001952 0.787034 255 255 255
0.741196 -0.002568 0.153494 255 255 255
0.331472 -0.001335 0.988048 255 255 255
0.800028 0.018462 0.320527 255 255 255
0.121992 -0.004278 0.838142 255 255 255
0.392890 0.011725 0.175421 255 255 255
0.200469 -0.003815 0.746543 255 255 255
0.681369 0.003499 0.709014 255 255 255
0.098604 0.009844 0.802795 255 255 255
0.393199 0.004742 0.993485 255 255 255
0.280347 0.004605 0.691324 255 255 255
0.505538 -0.001935 0.505165 255 255 255
0.344906 0.014313 0.710017 255 255 255
0.703861 0.004687 0.771630 255 255 255
0.019900 -0.001556 0.463430 255 255 255
0.630761 -0.010426 0.230446 255 255 255
0.232049 -0.002222 0.222424 255 255 255
0.267746 0.005359 0.037508 255 255 255
0.806763 0.006408 0.759865 255 255 255
0.943376 -0.004919 0.360840 255 255 255
0.325675 0.002160 0.773640 255 255 255
0.838395 -0.007108 0.130310 255 255 255
0.108451 0.012646 0.678962 255 255 255
0.637953 0.008699 0.034429 255 255 255
0.753445 -0.003380 0.590937 255 255 255
0.149493 0.010126 0.013513 255 255 255
0.421469 0.013865 0.705400 255 255 255
0.901887 0.001332 0.787050 255 255 255
0.106909 0.013711 0.367534 255 255 255
0.014539 -0.004214 0.352809 255 255 255
0.605321 0.005083 0.227112 255 255 255
0.433157 -0.004167 0.848847 255 255 255
0.800216 -0.009910 0.469913 255 255 255
0.922691 0.000687 0.759116 255 255 255
0.289554 -0.014318 0.596929 255 255 255
0.389935 0.000643 0.162173 255 255 255
0.471999 0.009931 0.174986 255 255 255
0.566308 0.003273 0.256710 255 255 255
0.987030 0.007106 0.852372 255 255 255
0.700532 -0.012172 0.334224 255 255 255
0.390653 0.014942 0.879216 255 255 255
0.273603 -0.002665 0.634682 255 255 255
0.938579 -0.007896 0.705290 255 255 255
0.144798 -0.002442 0.281088 255 255 255
0.716998 -0.005277 0.052140 255 255 255
0.922036 0.014545 0.458129 255 255 255
0.656028 0.010675 0.642346 255 255 255
0.412998 -0.015375 0.300678 255 255 255
0.177918 0.016782 0.953430 255 255 255
0.364682 0.004126 0.653264 255 255 255
0.701517 0.011826 0.994128 255 255 255
0.653368 -0.014144 0.802020 255 255 255
0.910157 0.002960 0.516726 255 255 255
0.862734 0.001067 0.166739 255 255 255
0.800466 -0.008847 0.654381 255 255 255
0.919158 -0.000653 0.137793 255 255 255
0.282635 0.026380 0.399812 255 255 255
0.359863 0.018584 0.500533 255 255 255
0.375741 -0.001774 0.509402 255 255 255
0.558101 -0.011205 0.242515 255 255 255
0.669699 0.000687 0.023311 255 255 255
0.290089 0.003787 0.556809 255 255 255
0.019915 -0.014571 0.461450 255 255 255
0.391555 -0.007551 0.073248 255 255 255
0.306052 0.009807 0.524765 255 255 255
0.937039 0.008475 0.122173 255 255 255
0.895837 0.004318 1.002103 255 255 255
0.881032 0.001576 0.740173 255 255 255
0.660080 0.006062 0.357952 255 255 255
0.342140 -0.009649 0.843603 255 255 255
0.564326 0.000651 0.112650 255 255 255
0.840460 -0.006731 0.880154 255 255 255
0.108969 -0.004185 0.662913 255 255 255
0.803801 -0.001888 0.098171 255 255 255
0.044825 -0.019915 0.441942 255 255 255
0.814885 0.000824 0.599398 255 255 255
0.815439 0.002233 0.616957 255 255 255
0.079408 0.003172 0.736219 255 255 255
0.637117 -0.013970 0.661705 255 255 255
0.513054 -0.008552 0.645995 255 255 255
0.162032 -0.017465 0.805412 255 255 255
0.138305 0.004348 0.028124 255 255 255
0.798556 0.002165 0.964950 255 255 255
0.576549 0.005338 0.448773 255 255 255
1.001841 -0.006057 0.281079 255 255 255
0.985765 -0.008626 0.496313 255 255 255
0.994972 0.008950 0.961433 255 255 255
0.113990 -0.000870 0.921992 255 255 255
0.939274 -0.005635 0.826878 255 255 255
0.222872 0.004280 0.220496 255 255 255
0.457404 -0.000991 0.272465 255 255 255
0.746301 0.009600 0.832507 255 255 255
0.203028 0.006289 0.638490 255 255 255
0.567112 0.002763 0.254108 255 255 255
0.184250 0.006181 0.869538 255 255 255
0.109083 0.007938 0.917735 255 255 255
0.118130 0.007088 0.637544 255 255 255
0.350594 0.011617 0.980741 255 255 255
0.010054 -0.004079 0.543027 255 255 255
0.440773 0.000967 0.883411 255 255 255
0.675561 -0.003895 0.283437 255 255 255
0.398279 -0.004486 0.966408 255 255 255
0.108971 -0.001075 0.360293 255 255 255
0.065394 -0.012897 0.097162 255 255 255
0.292367 0.005021 0.141880 255 255 255
0.182363 -0.009349 0.631204 255 255 255
0.967797 0.003275 0.741317 255 255 255
0.149419 -0.004314 0.060257 255 255 255
0.810361 0.009633 0.470386 255 255 255
0.583750 0.000395 0.777849 255 255 255
0.564598 -0.017779 0.516013 255 255 255
0.500882 -0.014587 0.413401 255 255 255
0.963044 0.005018 0.173720 255 255 255
0.365389 0.003314 0.123030 255 255 255
0.776500 -0.019140 0.328459 255 255 255
0.566774 0.003545 0.296514 255 255 255
0.385263 -0.002920 0.353971 255 255 255
0.970057 0.003651 0.067802 255 255 255
0.591001 0.003804 0.230713 255 255 255
0.124006 0.002035 0.524717 255 255 255
0.423432 0.013574 0.981903 255 255 255
0.798208 -0.005277 0.424372 255 255 255
0.712990 0.000556 0.405585 255 255 255
0.905881 -0.001867 0.292220 255 255 255
0.261626 -0.000517 0.568968 255 255 255
0.762632 -0.022764 0.850994 255 255 255
0.464503 0.012676 0.683029 255 255 255
0.574410 0.004613 1.007827 255 255 255
0.936814 -0.007179 0.943792 255 255 255
0.993768 -0.000756 0.850689 255 255 255
0.866810 0.006947 0.026095 255 255 255
0.351308 -0.014831 0.729187 255 255 255
0.878432 -0.014820 0.609525 255 255 255
0.634079 0.006667 0.745565 255 255 255
0.425010 0.010993 0.984525 255 255 255
0.019968 0.005581 0.233076 255 255 255
0.753728 -0.009885 0.357202 255 255 255
0.488026 -0.003615 0.533946 255 255 255
0.773049 -0.002564 0.331333 255 255 255
0.735041 -0.005530 0.865508 255 255 255
0.788711 -0.007056 0.555114 255 255 255
0.304943 0.002387 -0.007375 255 255 255
0.803702 -0.003979 0.899428 255 255 255
0.579879 0.008015 0.540458 255 255 255
0.472311 0.009194 0.708617 255 255 255
0.681499 -0.007515 0.498797 255 255 255
0.017462 0.003833 0.647605 255 255 255
0.112072 -0.011936 0.983676 255 255 255
0.295094 0.012087 0.429133 255 255 255
0.990168 0.002362 0.692235 255 255 255
0.147540 0.012163 0.861971 255 255 255
0.318409 -0.011305 0.111089 255 255 255
0.055286 0.008790 0.591298 255 255 255
0.330850 0.005673 0.478944 255 255 255
0.317096 0.022879 0.985317 255 255 255
0.937986 0.011199 0.933091 255 255 255
0.837881 -0.001672 0.167228 255 255 255
0.397835 0.015567 0.092543 255 255 255
0.021007 -0.018576 0.453409 255 255 255
0.842905 -0.007533 0.032647 255 255 255
0.675911 -0.008707 0.484971 255 255 255
0.153947 0.014389 0.730005 255 255 255
0.994780 0.013156 0.887466 255 255 255
0.071961 -0.016329 0.967930 255 255 255
0.878890 0.009552 0.908939 255 255 255
0.281729 0.015816 0.924718 255 255 255
0.435845 0.010318 0.338432 255 255 255
0.799552 0.002916 0.374939 255 255 255
0.666595 0.001325 0.802469 255 255 255
0.952437 0.013028 0.471775 255 255 255
0.598745 -0.004253 0.147102 255 255 255
0.101375 0.008367 0.438817 255 255 255
0.880058 0.003418 0.360100 255 255 255
0.786338 -0.006356 0.070427 255 255 255
0.723070 -0.003804 0.362176 255 255 255
0.055318 0.003228 0.955807 255 255 255
0.407207 -0.009782 0.951470 255 255 255
0.166727 0.013424 0.982656 255 255 255
0.823930 0.004633 0.555821 255 255 255
0.706365 -0.005180 0.114290 255 255 255
0.860172 -0.007208 0.232070 255 255 255
0.967187 0.000308 0.180026 255 255 255
0.771487 -0.002780 0.221371 255 255 255
0.994106 -0.010757 0.897850 255 255 255
0.614600 -0.002542 0.206447 255 255 255
0.035889 0.013796 0.376700 255 255 255
0.024006 0.005272 0.101905 255 255 255
0.362873 0.006533 0.033237 255 255 255
0.829782 0.003657 0.957307 255 255 255
0.868417 -0.003655 0.780575 255 255 255
0.962328 0.014138 0.427625 255 255 255
0.058787 -0.011035 0.151141 255 255 255
0.041763 0.002798 0.962873 255 255 255
0.916750 -0.003638 0.431668 255 255 255
0.309900 -0.001619 0.530493 255 255 255
0.562063 -0.001040 0.082966 255 255 255
0.978691 0.020540 0.271813 255 255 255
0.400951 0.003161 0.265237 255 255 255
0.663029 0.000833 0.154167 255 255 255
0.406329 0.003028 0.879793 255 255 255
0.763670 0.013648 0.193802 255 255 255
0.539204 -0.024348 0.037366 255 255 255
0.234436 0.006140 0.986905 255 255 255
0.270512 -0.007036 0.943491 255 255 255
0.241152 0.002357 0.734717 255 255 255
0.523519 -0.002195 0.844187 255 255 255
0.705741 0.003729 0.158715 255 255 255
0.944542 -0.003774 0.086610 255 255 255
0.683565 -0.011683 0.866232 255 255 255
0.779973 0.005334 0.353785 255 255 255
0.160303 -0.005516 0.322270 255 255 255
0.370411 -0.007903 0.691904 255 255 255
0.429838 -0.010763 0.757377 255 255 255
0.670882 0.000069 0.610436 255 255 255
0.302037 0.000965 0.110362 255 255 255
0.305995 0.012214 0.372884 255 255 255
0.355120 0.006117 0.009979 255 255 255
0.791755 -0.002725 0.095836 255 255 255
0.572736 0.002056 0.711649 255 255 255
0.073279 0.004942 0.266522 255 255 255
0.070180 0.012534 0.150531 255 255 255
0.391707 0.006533 0.985775 255 255 255
0.747660 0.007607 0.837945 255 255 255
0.678167 0.007078 0.666590 255 255 255
0.692573 -0.006692 0.336230 255 255 255
0.781194 -0.009134 0.172840 255 255 255
0.277246 0.002186 0.817536 255 255 255
0.534711 0.003166 0.918957 255 255 255
0.535262 -0.000225 0.842693 255 255 255
0.739992 -0.001463 0.256758 255 255 255
0.951517 -0.002904 0.086797 255 255 255
0.276639 0.009308 0.509719 255 255 255
0.784692 0.016780 0.761103 255 255 255
0.648636 0.005443 0.988117 255 255 255
0.589747 -0.003817 0.934901 255 255 255
0.767565 0.024998 0.034572 255 255 255
0.942289 0.015152 0.026258 255 255 255
0.044935 0.006231 0.627159 255 255 255
0.137798 -0.004833 0.139362 255 255 255
0.748960 0.008111 0.613200 255 255 255
0.071827 0.007433 -0.003308 255 255 255
0.524164 0.012899 0.732560 255 255 255
0.227129 0.003834 0.384552 255 255 255
0.269791 0.010776 0.748823 255 255 255
0.688191 -0.000549 0.697324 255 255 255
0.038901 -0.001036 0.484625 255 255 255
0.861481 0.002836 0.521822 255 255 255
0.441260 0.004011 0.086793 255 255 255
0.519262 0.005400 0.649709 255 255 255
0.546841 0.005838 0.629525 255 255 255
0.655617 -0.005272 0.812938 255 255 255
0.342198 -0.012695 0.032578 255 255 255
0.104059 -0.000129 0.161706 255 255 255
0.314422 -0.004003 0.672075 255 255 255
0.177346 0.009679 0.555019 255 255 255
0.556362 0.000974 0.398924 255 255 255
0.303958 -0.007119 0.032561 255 255 255
0.957635 -0.015173 0.858008 255 255 255
0.964318 -0.009138 0.275645 255 255 255
0.627524 0.021874 0.370051 255 255 255
0.612918 -0.002870 0.448186 255 255 255
0.975817 0.023791 0.533176 255 255 255
0.887358 -0.010055 0.243820 255 255 255
0.762329 -0.001642 0.513117 255 255 255
0.311540 -0.007910 0.934709 255 255 255
0.378123 0.003736 0.211547 255 255 255
0.195810 0.008345 0.552865 255 255 255
0.496268 -0.007936 0.971068 255 255 255
0.977818 -0.011549 0.476892 255 255 255
0.915828 -0.021462 0.911490 255 255 255
0.139668 0.005198 0.027156 255 255 255
0.019448 0.005942 0.532355 255 255 255
0.899238 -0.001457 -0.014535 255 255 255
0.547214 -0.020443 0.262205 255 255 255
0.191230 -0.002262 0.939517 255 255 255
0.686893 -0.011498 0.395767 255 255 255
0.648796 -0.010477 0.461396 255 255 255
0.108130 -0.004466 0.401330 255 255 255
0.247413 -0.006671 0.737061 255 255 255
0.073857 0.003265 0.401108 255 255 255
0.230093 0.008311 0.507367 255 255 255
0.141203 0.016982 0.073785 255 255 255
0.181002 0.010437 0.722129 255 255 255
0.683963 0.009083 0.532902 255 255 255
0.037995 -0.010039 0.968374 255 255 255
0.094982 0.010801 0.873250 255 255 255
0.140520 -0.002414 0.331904 255 255 255
0.314923 0.001262 0.366200 255 255 255
0.300192 -0.011732 0.669104 255 255 255
0.243907 0.013727 0.463926 255 255 255
0.745640 0.007880 0.549822 255 255 255
0.996640 0.008724 0.983267 255 255 255
0.531273 -0.012737 0.094153 255 255 255
0.940316 -0.003502 0.592304 255 255 255
0.393166 -0.007484 0.659035 255 255 255
0.111718 0.008372 0.200893 255 255 255
0.383900 0.010228 0.583429 255 255 255
0.300561 0.001015 0.755060 255 255 255
0.508270 0.027336 0.291242 255 255 255
0.657706 0.015365 0.981564 255 255 255
0.458524 0.009483 0.134184 255 255 255
0.939653 -0.004186 0.456075 255 255 255
0.884184 0.001231 0.707986 255 255 255
0.705076 0.009703 0.428580 255 255 255
0.487609 0.001808 0.527526 255 255 255
0.110610 -0.018201 0.489221 255 255 255
0.388474 -0.001798 0.045569 255 255 255
0.694099 0.017519 0.314971 255 255 255
0.297873 -0.002192 0.092963 255 255 255
0.093147 0.005814 0.757584 255 255 255
0.905051 -0.001387 0.487097 255 255 255
0.706702 -0.005122 0.413257 255 255 255
0.609077 -0.007369 0.760389 255 255 255
0.787029 0.004321 0.666779 255 255 255
0.837208 0.002495 0.413674 255 255 255
0.481233 0.009871 0.136812 255 255 255
0.900028 -0.002427 0.473883 255 255 255
0.902722 0.000233 0.175366 255 255 255
0.277697 -0.007888 0.421057 255 255 255
0.611429 -0.007559 0.890191 255 255 255
0.542342 0.010632 0.268911 255 255 255
0.556541 0.006824 0.425224 255 255 255
0.928197 0.023940 0.047528 255 255 255
0.325182 0.000670 0.921365 255 255 255
0.972870 0.002717 0.078910 255 255 255
0.901427 -0.010589 0.630735 255 255 255
0.462300 -0.000005 0.979181 255 255 255
0.821282 -0.025039 0.914205 255 255 255
0.777079 0.006021 0.022348 255 255 255
0.676467 -0.002405 0.269392 255 255 255
0.325329 0.007644 0.099439 255 255 255
0.179177 0.006531 0.415303 255 255 255
0.676052 0.002040 0.444772 255 255 255
0.830231 -0.002264 0.156839 255 255 255
0.009427 0.002940 0.781201 255 255 255
0.650796 0.004550 0.335966 255 255 255
0.437356 -0.006971 0.409378 255 255 255
0.913602 -0.014602 0.277603 255 255 255
0.326266 0.016603 0.283362 255 255 255
0.473690 -0.003636 0.432418 255 255 255
0.498313 0.006132 0.410435 255 255 255
0.141165 -0.005786 0.502353 255 255 255
0.711825 -0.004852 0.719231 255 255 255
0.831484 -0.000294 0.120758 255 255 255
0.059348 0.000841 0.101931 255 255 255
0.289616 -0.002515 0.160490 255 255 255
0.054556 -0.013273 0.094675 255 255 255
0.936245 0.006028 0.167861 255 255 255
0.687450 -0.006895 0.034790 255 255 255
0.967895 0.012122 0.828137 255 255 255
0.520621 0.015068 0.796232 255 255 255
0.814916 0.012962 0.035144 255 255 255
0.375774 -0.002875 0.339569 255 255 255
0.362502 -0.003831 0.619787 255 255 255
0.400090 0.010792 0.164268 255 255 255
0.659464 -0.010442 0.175113 255 255 255
0.368527 -0.001369 0.068580 255 255 255
0.909468 0.011619 0.158117 255 255 255
0.970452 0.000042 0.628129 255 255 255
0.048109 0.012468 0.618294 255 255 255
0.185801 -0.010389 0.263205 255 255 255
0.114472 0.000978 0.254312 255 255 255
0.056281 -0.012668 0.408685 255 255 255
0.225638 -0.000640 0.494850 255 255 255
0.452684 -0.010113 0.906392 255 255 255
0.853387 0.000010 0.683600 255 255 255
0.216959 0.017608 0.317013 255 255 255
0.493300 -0.002391 0.766481 255 255 255
0.929438 -0.014012 0.438925 255 255 255
0.677456 -0.022116 0.590004 255 255 255
0.786282 0.019944 0.648596 255 255 255
0.532528 -0.003664 0.341782 255 255 255
0.976356 0.002316 0.494650 255 255 255
0.578408 -0.003666 0.087629 255 255 255
0.059055 0.000550 0.835434 255 255 255
0.196122 -0.017153 0.949192 255 255 255
0.408602 -0.007213 0.907204 255 255 255
0.607193 0.000597 0.058420 255 255 255
0.789610 -0.004294 0.860105 255 255 255
0.410701 -0.011955 0.857434 255 255 255
0.712379 0.007672 0.109902 255 255 255
0.796416 -0.014305 0.715967 255 255 255
0.315191 -0.009699 0.063286 255 255 255
0.991246 -0.008532 0.815880 255 255 255
0.637024 -0.007357 0.803970 255 255 255
0.893833 -0.002107 0.966470 255 255 255
0.554011 0.006561 0.435675 255 255 255
0.746150 -0.002940 0.492906 255 255 255
0.762784 -0.004769 0.440041 255 255 255
0.920138 0.008652 0.498708 255 255 255
0.160702 -0.001425 0.806275 255 255 255
0.541869 0.000752 0.872282 255 255 255
0.429331 -0.021411 0.005937 255 255 255
0.919356 -0.014412 0.659017 255 255 255
0.109188 -0.006246 0.634137 255 255 255
0.982540 -0.012153 0.603189 255 255 255
0.884074 -0.025560 0.771576 255 255 255
0.069410 -0.009930 0.751670 255 255 255
0.486826 0.009735 0.101806 255 255 255
0.736311 -0.002143 0.706733 255 255 255
0.730861 -0.020381 0.823937 255 255 255
0.912719 0.012255 0.001747 255 255 255
0.802913 -0.005918 0.327488 255 255 255
0.327725 0.008396 0.217179 255 255 255
0.481541 -0.017235 0.035782 255 255 255
0.708280 -0.012301 0.871064 255 255 255
0.155434 0.002347 0.545607 255 255 255
0.190614 -0.002103 0.737060 255 255 255
0.495261 0.000142 0.213593 255 255 255
0.300705 -0.010747 0.111573 255 255 255
0.861283 -0.012445 0.147026 255 255 255
0.585727 0.013485 0.843210 255 255 255
0.359252 0.001181 0.254221 255 255 255
0.846859 0.004078 0.621174 255 255 255
0.808696 -0.035519 0.353750 255 255 255
1.008215 0.006117 0.431264 255 255 255
0.866158 0.010758 0.865408 255 255 255
0.412737 -0.001615 0.722975 255 255 255
0.134170 0.019114 0.328825 255 255 255
0.838161 0.001815 0.897510 255 255 255
0.061601 0.013206 0.295925 255 255 255
0.361405 0.010775 0.746990 255 255 255
0.919841 0.002949 0.780845 255 255 255
0.961511 -0.009184 0.365060 255 255 255
0.631152 -0.003064 0.526769 255 255 255
0.695799 0.001374 0.441232 255 255 255
0.052459 -0.015004 0.627860 255 255 255
0.518457 0.027115 0.730316 255 255 255
0.547238 0.013859 0.909899 255 255 255
0.345256 -0.000926 0.569434 255 255 255
0.085074 -0.004122 0.893999 255 255 255
0.224171 0.007125 1.014299 255 255 255
0.357740 -0.002675 0.540739 255 255 255
0.433456 0.008620 0.253433 255 255 255
0.602955 -0.004072 0.631666 255 255 255
0.720172 -0.001173 0.730429 255 255 255
0.311744 -0.011533 0.640965 255 255 255
0.334681 0.002889 0.057756 255 255 255
0.025804 -0.005129 0.189150 255 255 255
0.050116 -0.001075 0.262236 255 255 255
0.246179 0.013361 0.250782 255 255 255
0.742877 0.004589 0.937683 255 255 255
0.628050 0.005312 0.660613 255 255 255
0.786504 0.008863 0.244689 255 255 255
0.783951 0.000705 0.175109 255 255 255
0.857946 -0.010498 0.055867 255 255 255
0.722191 0.008150 0.283631 255 255 255
0.980004 0.014962 0.340819 255 255 255
0.895783 0.016232 0.285633 255 255 255
0.590480 0.002855 0.720905 255 255 255
0.588079 0.011418 0.564936 255 255 255
0.035464 -0.001620 0.091814 255 255 255
0.999551 0.000956 0.650915 255 255 255
0.129555 0.010774 0.318772 255 255 255
0.719973 -0.013879 0.759168 255 255 255
0.807559 -0.001909 0.486462 255 255 255
0.368666 -0.005044 0.129066 255 255 255
0.205884 0.013797 0.174942 255 255 255
0.105303 -0.014563 0.548587 255 255 255
0.737761 -0.008434 0.277889 255 255 255
0.449786 0.017907 0.379046 255 255 255
0.703004 -0.000280 0.801196 255 255 255
0.919386 -0.000716 0.543784 255 255 255
0.135449 -0.005126 0.882080 255 255 255
0.903012 0.006407 0.700264 255 255 255
0.406479 0.005383 0.163565 255 255 255
0.293498 0.004597 0.103260 255 255 255
0.917445 0.000539 0.652961 255 255 255
0.967106 -0.003042 0.533316 255 255 255
0.190094 -0.000945 0.739606 255 255 255
0.664431 -0.006170 0.569619 255 255 255
0.101103 -0.016775 0.997277 255 255 255
0.647650 -0.002878 0.984500 255 255 255
0.818663 0.010696 0.263240 255 255 255
0.692805 -0.004414 0.777523 255 255 255
0.420207 -0.006660 0.765960 255 255 255
0.385596 -0.013989 0.840217 255 255 255
0.389834 0.014105 0.411410 255 255 255
0.593823 0.005117 0.933799 255 255 255
0.874035 -0.010794 0.371539 255 255 255
0.914601 0.009373 0.706751 255 255 255
0.046673 0.017353 0.594961 255 255 255
0.173381 0.002775 0.382298 255 255 255
0.098495 0.001679 0.244588 255 255 255
0.178273 0.002413 0.684116 255 255 255
0.355554 -0.011602 0.901329 255 255 255
0.509165 -0.019932 0.398053 255 255 255
0.626559 0.017422 0.098616 255 255 255
0.738127 -0.006840 0.277074 255 255 255
0.894958 -0.004158 0.382980 255 255 255
0.994349 -0.004460 0.396868 255 255 255
0.679184 0.018912 0.652365 255 255 255
0.849951 0.003030 0.121039 255 255 255
0.784476 -0.002036 0.117782 255 255 255
0.316421 0.016721 0.165434 255 255 255
0.871004 -0.000788 0.192191 255 255 255
0.043173 0.008030 0.195210 255 255 255
0.006043 -0.016230 -0.010398 255 255 255
0.286159 -0.000491 0.280702 255 255 255
0.441214 0.002397 0.564337 255 255 255
0.642874 0.016635 0.984812 255 255 255
0.078041 0.017327 0.405650 255 255 255
0.672271 -0.002949 0.831226 255 255 255
0.806834 0.003681 0.218824 255 255 255
0.190641 -0.000505 0.943036 255 255 255
0.424761 -0.002053 0.017604 255 255 255
0.519772 0.004561 0.019521 255 255 255
0.456386 0.015768 0.374627 255 255 255
0.805652 0.015276 0.875146 255 255 255
0.952694 -0.000493 0.562747 255 255 255
0.811363 0.000875 0.039226 255 255 255
0.078724 -0.000926 0.834478 255 255 255
0.799635 -0.005071 0.163122 255 255 255
0.055702 -0.007372 0.384933 255 255 255
0.229362 0.004558 0.078603 255 255 255
0.149957 -0.011985 0.925931 255 255 255
0.203819 0.009713 0.000022 255 255 255
0.528146 -0.024917 0.857056 255 255 255
0.684474 -0.019713 0.154227 255 255 255
0.471807 0.012755 0.195515 255 255 255
0.985466 -0.013412 0.222962 255 255 255
0.257365 0.001384 0.139836 255 255 255
0.777340 -0.011675 0.165805 255 255 255
0.877272 -0.016406 0.854386 255 255 255
0.574478 -0.007066 0.421562 255 255 255
0.466106 0.006289 0.360455 255 255 255
0.604076 0.009933 0.237909 255 255 255
0.453793 -0.001058 0.919626 255 255 255
0.543487 0.022820 0.586981 255 255 255
0.396608 0.004623 0.340472 255 255 255
0.396965 0.006253 0.188039 255 255 255
0.696849 0.001992 0.926970 255 255 255
0.071120 -0.035259 0.201500 255 255 255
0.168608 0.005911 0.071979 255 255 255
0.846906 0.001063 0.646368 255 255 255
0.758809 -0.001408 0.273274 255 255 255
0.270578 -0.001062 0.159777 255 255 255
0.383923 0.000466 0.625245 255 255 255
0.944404 -0.005316 0.474039 255 255 255
0.808108 -0.007872 0.147398 255 255 255
0.629572 -0.000052 0.590012 255 255 255
0.219535 0.012161 0.671364 255 255 255
0.044321 0.007291 0.688300 255 255 255
0.429155 -0.000894 0.256523 255 255 255
0.687670 -0.002522 0.523661 255 255 255
0.842433 -0.027434 0.341868 255 255 255
0.832868 0.016866 0.934507 255 255 255
0.043173 -0.002488 0.488586 255 255 255
0.249756 0.012352 0.579978 255 255 255
0.351967 -0.006572 0.545672 255 255 255
0.196853 0.003756 1.004195 255 255 255
0.806273 -0.003676 0.895732 255 255 255
0.764591 -0.007469 0.993240 255 255 255
0.538852 0.011214 0.260001 255 255 255
0.967267 -0.000184 0.473913 255 255 255
0.153498 -0.010744 0.462904 255 255 255
0.914737 0.001133 0.704728 255 255 255
0.110981 0.006833 0.726201 255 255 255
0.165428 -0.008037 0.420283 255 255 255
0.689426 0.018787 0.519720 255 255 255
0.115237 0.003721 0.473680 255 255 255
0.573290 -0.016448 0.752445 255 255 255
0.410480 0.007258 0.491505 255 255 255
0.724656 -0.001036 0.662396 255 255 255
0.900467 0.012266 0.803220 255 255 255
0.757165 0.010977 0.677190 255 255 255
0.848746 0.012240 0.372163 255 255 255
0.044729 -0.004857 0.498652 255 255 255
0.299380 0.004988 0.467875 255 255 255
0.513395 0.002977 0.941746 255 255 255
0.403178 -0.005455 0.429289 255 255 255
0.235872 0.013012 0.913425 255 255 255
0.318852 0.002164 0.901362 255 255 255
0.945029 -0.003997 0.755708 255 255 255
0.304495 0.012122 0.212809 255 255 255
0.354889 0.003660 0.431267 255 255 255
-0.003212 -0.000948 0.670942 255 255 255
0.838527 -0.000893 0.245312 255 255 255
0.147244 -0.001889 0.164613 255 255 255
0.202866 -0.010579 0.478339 255 255 255
0.245656 0.014106 0.603662 255 255 255
0.883200 -0.008287 0.642411 255 255 255
0.200651 0.001928 0.610312 255 255 255
0.787014 0.017209 0.281051 255 255 255
0.808072 0.002181 0.342707 255 255 255
0.914523 -0.004223 0.374897 255 255 255
0.131723 0.007872 0.187767 255 255 255
0.222807 0.001064 0.201661 255 255 255
0.721347 0.004575 0.453424 255 255 255
0.187827 -0.003406 0.128603 255 255 255
0.270880 0.011770 0.107569 255 255 255
0.158139 0.002003 0.505625 255 255 255
0.150212 -0.017243 0.044340 255 255 255
0.466212 -0.009280 0.383734 255 255 255
0.101025 0.002838 0.768209 255 255 255
0.320424 -0.005318 0.957740 255 255 255
0.427153 -0.009111 0.498346 255 255 255
0.020693 -0.006056 0.248974 255 255 255
0.401090 -0.012157 0.627481 255 255 255
0.087286 -0.007353 0.159131 255 255 255
0.505170 -0.011881 0.932350 255 255 255
0.823761 0.002461 0.756121 255 255 255
0.820337 -0.005243 0.129563 255 255 255
0.077568 -0.012465 0.102675 255 255 255
0.593472 0.005624 0.939366 255 255 255
0.842289 0.017959 0.958928 255 255 255
0.245217 0.009395 0.244907 255 255 255
0.767123 0.016707 0.189537 255 255 255
0.903126 0.008944 0.681119 255 255 255
0.792375 -0.002121 0.987904 255 255 255
0.105307 0.001636 0.256584 255 255 255
0.012523 -0.010253 0.361981 255 255 255
0.190033 0.007525 0.360875 255 255 255
0.265344 -0.004847 0.475480 255 255 255
0.594483 0.004131 0.264351 255 255 255
0.392666 -0.000863 0.545384 255 255 255
0.706524 0.006853 0.828864 255 255 255
0.354880 0.004100 0.405681 255 255 255
0.159689 0.016205 0.278405 255 255 255
0.311933 -0.011540 0.940111 255 255 255
0.876853 -0.017259 0.557983 255 255 255
0.951733 0.001675 0.224654 255 255 255
0.220482 -0.009113 0.331839 255 255 255
0.786440 -0.003392 0.499406 255 255 255
0.271172 -0.005442 0.102976 255 255 255
0.897423 -0.002431 0.063465 255 255 255
0.155289 -0.012914 0.715633 255 255 255
0.676320 -0.001944 0.746055 255 255 255
0.092176 -0.006498 0.482452 255 255 255
0.977005 0.011676 0.857667 255 255 255
0.691035 0.010963 0.601912 255 255 255
0.839865 0.000029 0.757531 255 255 255
0.570034 0.005173 0.935897 255 255 255
0.476053 0.002938 0.803135 255 255 255
0.626864 -0.008989 0.303805 255 255 255
0.527410 0.004843 0.107973 255 255 255
0.469849 0.005688 0.042680 255 255 255
0.763812 -0.007135 0.393009 255 255 255
0.169664 -0.007202 0.012243 255 255 255
0.171110 0.004427 0.742737 255 255 255
0.426618 0.016527 0.449058 255 255 255
0.316096 0.012739 0.743806 255 255 255
0.072024 0.004837 0.474255 255 255 255
0.846897 0.006085 -0.001204 255 255 255
0.785143 0.006344 0.867810 255 255 255
0.539111 0.006072 0.930509 255 255 255
0.972600 0.014981 0.579128 255 255 255
0.063747 -0.016960 0.714540 255 255 255
0.778076 0.004103 0.064572 255 255 255
0.266244 0.011433 0.712378 255 255 255
0.370039 0.011907 0.076992 255 255 255
0.214936 0.011400 0.329482 255 255 255
0.780721 0.012166 0.297158 255 255 255
0.149384 0.000136 0.824766 255 255 255
0.836209 -0.008511 0.450134 255 255 255
0.643941 0.011003 0.056068 255 255 255
0.056909 0.000068 0.231768 255 255 255
0.796300 0.015429 0.449306 255 255 255
0.635300 0.004535 0.948681 255 255 255
0.921024 -0.009857 0.224272 255 255 255
0.760804 0.017814 0.775313 255 255 255
0.562246 0.015341 0.176488 255 255 255
0.823825 0.005723 0.633442 255 255 255
0.288446 -0.009774 0.240015 255 255 255
0.534123 0.019653 0.769425 255 255 255
0.302741 0.001924 0.547771 255 255 255
0.973220 0.010568 0.894275 255 255 255
0.229535 -0.004791 0.107527 255 255 255
0.024323 0.007391 0.202198 255 255 255
0.329206 -0.008508 0.767079 255 255 255
0.503511 0.008233 0.333227 255 255 255
0.017036 -0.010618 0.069158 255 255 255
0.549634 -0.007327 0.704078 255 255 255
0.871927 -0.023172 0.149561 255 255 255
0.720104 -0.001958 0.129512 255 255 255
0.622606 0.003858 0.502968 255 255 255
0.965143 0.009422 0.428064 255 255 255
0.962654 -0.002540 0.188979 255 255 255
0.830910 0.004412 0.660869 255 255 255
0.606266 -0.017087 0.411740 255 255 255
0.467975 -0.006707 0.691668 255 255 255
-0.006156 -0.003145 0.370543 255 255 255
0.593204 -0.022091 0.833397 255 255 255
0.989297 0.009434 0.595231 255 255 255
0.807136 -0.006030 0.815438 255 255 255
0.334391 -0.010863 0.639887 255 255 255
0.144011 0.013075 0.371552 255 255 255
0.787432 -0.002985 0.386711 255 255 255
0.751400 0.000232 0.813450 255 255 255
0.953987 -0.013024 0.018004 255 255 255
0.872533 -0.003776 0.177923 255 255 255
0.557694 0.009105 0.636666 255 255 255
0.095832 -0.003762 0.733871 255 255 255
0.481211 -0.004601 0.843176 255 255 255
0.319362 0.006113 0.784454 255 255 255
0.503725 0.004882 0.989205 255 255 255
0.310798 -0.006478 0.944075 255 255 255
0.867789 -0.000437 0.413421 255 255 255
0.853680 0.005040 0.800636 255 255 255
0.333772 0.006200 0.311920 255 255 255
0.581503 -0.008436 0.932150 255 255 255
0.425407 0.008474 0.997479 255 255 255
0.913405 0.003381 0.723700 255 255 255
0.185767 -0.009067 0.339301 255 255 255
0.694534 -0.010565 0.965993 255 255 255
0.947776 -0.011136 0.035682 255 255 255
0.155413 0.012876 0.415534 255 255 255
0.210822 0.011840 0.508003 255 255 255
0.676713 -0.018492 0.520179 255 255 255
0.796989 -0.002523 0.220030 255 255 255
0.476722 0.003400 0.409023 255 255 255
0.602002 0.007302 0.716362 255 255 255
0.221578 -0.009817 0.768244 255 255 255
0.480299 0.014981 0.725955 255 255 255
0.120185 0.000570 0.015548 255 255 255
0.316401 -0.004804 0.669179 255 255 255
0.289633 -0.000424 0.259142 255 255 255
0.458902 -0.010698 0.645710 255 255 255
0.923594 0.000753 0.374730 255 255 255
0.182859 -0.001663 0.579048 255 255 255
0.383678 0.016413 0.217879 255 255 255
0.611084 0.008107 0.686926 255 255 255
0.945947 -0.000881 0.909687 255 255 255
0.118199 -0.007138 0.331206 255 255 255
0.916396 0.007069 0.076170 255 255 255
0.076898 0.004786 0.942501 255 255 255
0.485326 -0.006817 0.551589 255 255 255
0.431197 0.000774 0.826773 255 255 255
0.206514 0.001308 0.941692 255 255 255
0.357323 0.007309 0.864491 255 255 255
0.450294 -0.014526 0.527583 255 255 255
0.863888 0.002123 0.975297 255 255 255
0.960685 0.012879 0.442956 255 255 255
0.528762 0.005969 0.260294 255 255 255
0.865984 0.014354 0.863475 255 255 255
0.617244 -0.018113 0.863455 255 255 255
0.355717 -0.001638 0.048087 255 255 255
0.204385 -0.020325 0.743750 255 255 255
0.414859 0.014356 0.344273 255 255 255
0.526482 -0.017765 0.866461 255 255 255
0.047344 -0.011932 0.235886 255 255 255
0.134893 0.002315 0.576763 255 255 255
0.597919 -0.014485 0.134726 255 255 255
0.237706 0.000462 0.874804 255 255 255
0.832602 -0.005814 0.136109 255 255 255
0.323421 -0.003998 0.661549 255 255 255
0.085707 -0.006319 0.218222 255 255 255
0.063431 -0.007499 0.766563 255 255 255
0.944527 0.003660 0.161779 255 255 255
0.112995 0.000294 0.758451 255 255 255
0.143878 0.011078 0.480680 255 255 255
0.836948 0.005429 0.705674 255 255 255
0.251023 -0.003886 0.524837 255 255 255
0.635155 -0.000327 0.576841 255 255 255
0.816009 -0.020813 0.613365 255 255 255
0.591982 -0.007127 0.223816 255 255 255
0.940915 -0.005713 0.579171 255 255 255
0.722702 0.002475 0.280733 255 255 255
0.116019 -0.005106 0.282703 255 255 255
0.558827 -0.002415 0.499117 255 255 255
0.714023 -0.008551 0.233992 255 255 255
0.806162 0.015830 0.617656 255 255 255
0.017920 0.008270 0.297822 255 255 255
0.726213 0.027543 0.166962 255 255 255
0.814234 0.009575 0.876629 255 255 255
0.745359 -0.015069 0.430980 255 255 255
0.514476 -0.013522 0.958981 255 255 255
0.457984 0.000727 0.400215 255 255 255
0.540468 0.013951 0.000336 255 255 255
0.709442 -0.004066 0.201653 255 255 255
0.933576 -0.002093 0.835965 255 255 255
0.618188 -0.001236 0.361213 255 255 255
0.881937 -0.017976 0.843055 255 255 255
0.706415 0.005756 0.383314 255 255 255
0.060537 -0.003465 0.299230 255 255 255
0.510855 0.000768 0.796125 255 255 255
0.284780 0.008327 0.070284 255 255 255
0.281055 -0.011792 0.871547 255 255 255
0.369629 -0.011066 0.423573 255 255 255
0.321324 -0.003071 0.345412 255 255 255
0.587643 -0.002245 0.234297 255 255 255
0.697672 0.002288 0.573052 255 255 255
0.278122 0.001160 0.947743 255 255 255
0.132510 -0.001600 0.345965 255 255 255
0.057615 -0.000839 0.224054 255 255 255
0.595426 0.000453 0.251267 255 255 255
0.198576 0.011093 0.099574 255 255 255
-0.003390 -0.020883 0.258227 255 255 255
0.939516 0.002675 0.640631 255 255 255
0.532244 -0.011894 0.710126 255 255 255
0.090522 -0.001865 0.426614 255 255 255
0.844122 -0.001507 0.936504 255 255 255
0.974337 0.018104 0.168772 255 255 255
0.441509 0.000366 0.736984 255 255 255
0.031709 -0.005827 0.416658 255 255 255
0.130507 -0.001823 0.239265 255 255 255
0.368705 0.001858 0.196860 255 255 255
0.892813 -0.000765 0.162449 255 255 255
0.150183 0.010383 0.970475 255 255 255
0.811733 -0.005155 0.379042 255 255 255
0.006697 0.011273 0.600069 255 255 255
0.457291 -0.018754 0.438611 255 255 255
0.651538 0.014504 0.815329 255 255 255
0.058587 -0.003729 0.765296 255 255 255
0.612174 0.001017 0.048005 255 255 255
0.936401 0.011586 0.636876 255 255 255
0.150358 0.009970 0.975460 255 255 255
0.725168 -0.006842 0.849697 255 255 255
0.614567 0.012561 0.308720 255 255 255
0.184737 0.000070 0.602976 255 255 255
0.007089 -0.018889 0.467076 255 255 255
0.013764 0.008924 0.583418 255 255 255
0.535295 -0.006005 0.554231 255 255 255
0.938554 0.020271 0.746567 255 255 255
0.644895 -0.025342 0.344792 255 255 255
0.711494 -0.013664 0.426356 255 255 255
0.472069 0.011769 0.589362 255 255 255
0.600066 0.013853 0.016310 255 255 255
0.119281 0.000839 0.277933 255 255 255
0.873722 0.004227 0.476026 255 255 255
0.762251 -0.004002 0.183866 255 255 255
0.980747 0.004783 0.726806 255 255 255
0.292292 0.004939 0.126364 255 255 255
0.220613 -0.021948 0.735263 255 255 255
0.124489 -0.010745 0.827451 255 255 255
0.944221 0.009243 0.683637 255 255 255
0.772537 -0.004340 0.932219 255 255 255
0.163504 -0.012016 0.716349 255 255 255
0.545298 -0.003616 0.211332 255 255 255
0.406225 0.016585 0.834158 255 255 255
0.150418 0.004874 0.238648 255 255 255
0.149019 0.004196 0.820496 255 255 255
0.949286 -0.011537 0.591114 255 255 255
0.314948 -0.000590 0.510895 255 255 255
0.939735 -0.010224 0.577905 255 255 255
0.079037 -0.002304 0.390436 255 255 255
0.458081 0.003243 0.284333 255 255 255
0.148529 0.002138 0.479479 255 255 255
0.011610 0.002108 0.137109 255 255 255
0.543360 0.015601 0.608961 255 255 255
0.101450 0.001084 0.552407 255 255 255
0.719479 0.004977 0.657835 255 255 255
0.705627 0.002168 0.644664 255 255 255
0.180201 -0.005434 0.927073 255 255 255
0.949520 -0.005403 0.522032 255 255 255
0.713657 -0.009445 0.007017 255 255 255
0.311229 -0.001458 0.885063 255 255 255
0.714173 0.015089 0.139803 255 255 255
0.720651 0.001487 0.725841 255 255 255
0.332439 -0.001484 0.190998 255 255 255
0.384184 0.009247 0.120291 255 255 255
0.357656 -0.003976 0.957588 255 255 255
0.608069 -0.016687 0.030080 255 255 255
0.899738 -0.010039 0.035324 255 255 255
0.165339 -0.015268 0.447551 255 255 255
0.869422 0.004412 0.614362 255 255 255
0.017153 0.005951 0.183514 255 255 255
0.665491 0.002389 0.718257 255 255 255
0.416803 -0.005786 0.934456 255 255 255
0.784560 -0.009178 0.501434 255 255 255
0.720219 -0.000111 0.132302 255 255 255
0.482924 0.009450 0.835657 255 255 255
0.639146 -0.000152 0.946297 255 255 255
0.492408 0.006536 0.839673 255 255 255
0.817474 -0.000690 0.582266 255 255 255
0.469166 -0.000771 0.853327 255 255 255
0.529729 0.008581 0.369005 255 255 255
0.268932 -0.002489 0.490565 255 255 255
0.591450 -0.001658 0.099103 255 255 255
0.319422 -0.005308 0.327178 255 255 255
0.568725 -0.015274 0.926200 255 255 255
0.161060 -0.011169 0.866540 255 255 255
0.161609 -0.015025 0.593650 255 255 255
0.433370 -0.002024 0.895115 255 255 255
0.419123 0.003030 0.418456 255 255 255
0.247240 0.008075 0.938092 255 255 255
0.124514 0.009306 0.961229 255 255 255
0.049626 -0.010639 0.579001 255 255 255
0.034773 0.014915 0.040458 255 255 255
0.270812 0.000520 0.877769 255 255 255
0.466520 -0.006192 0.901455 255 255 255
0.727885 0.003062 0.947477 255 255 255
0.475418 -0.001310 0.476180 255 255 255
0.916614 -0.007609 0.294686 255 255 255
0.032987 -0.004936 0.099598 255 255 255
0.184737 -0.001422 0.881495 255 255 255
0.330441 -0.006964 0.720625 255 255 255
0.567743 -0.017266 0.804696 255 255 255
0.838926 0.008068 0.775472 255 255 255
0.344076 0.001117 0.819366 255 255 255
0.253571 0.008712 0.126175 255 255 255
0.059237 -0.012968 0.325701 255 255 255
0.830791 -0.006198 0.816056 255 255 255
0.391887 0.006697 0.735087 255 255 255
0.584664 0.001911 0.763994 255 255 255
0.990052 0.001338 0.782987 255 255 255
-0.000989 0.000534 0.081337 255 255 255
0.148603 -0.014898 0.845669 255 255 255
0.796475 0.007101 0.088950 255 255 255
0.804486 -0.003578 0.825582 255 255 255
0.755524 0.000255 0.309339 255 255 255
0.543331 0.014332 0.221169 255 255 255
0.987839 0.007519 0.194758 255 255 255
0.392309 -0.008279 0.080435 255 255 255
0.616832 0.008367 0.508739 255 255 255
0.073072 -0.006175 0.771691 255 255 255
0.421121 -0.008165 0.658836 255 255 255
0.713061 0.009999 0.996616 255 255 255
0.227630 0.009063 0.782257 255 255 255
0.924806 0.002765 0.733738 255 255 255
0.701669 0.014267 0.421081 255 255 255
0.295519 0.009374 0.127022 255 255 255
0.778637 0.006105 0.392044 255 255 255
0.092678 -0.005647 0.870106 255 255 255
0.971878 0.003335 0.316966 255 255 255
0.039370 0.002652 0.128199 255 255 255
0.921459 0.007361 0.543738 255 255 255
0.254881 -0.022973 0.612292 255 255 255
0.758009 -0.006024 0.115767 255 255 255
0.015331 -0.009885 0.781078 255 255 255
0.261398 0.023888 0.504880 255 255 255
0.754433 0.000289 0.584988 255 255 255
0.542564 0.000456 0.036926 255 255 255
0.105564 0.008475 0.237151 255 255 255
0.388784 0.006223 0.435164 255 255 255
0.376324 0.001332 0.097883 255 255 255
0.580822 0.006830 0.747953 255 255 255
0.682735 -0.000281 0.220344 255 255 255
0.841499 -0.007253 0.359117 255 255 255
0.504500 0.003085 0.020404 255 255 255
0.396998 -0.002986 0.260847 255 255 255
0.138785 0.004127 0.834766 255 255 255
0.808592 0.008101 0.540674 255 255 255
0.698242 -0.022996 0.726646 255 255 255
0.402740 0.000608 0.198796 255 255 255
0.514204 -0.000246 0.200643 255 255 255
0.662843 0.008456 0.606098 255 255 255
0.160968 0.012565 0.195011 255 255 255
0.022485 -0.022521 0.200976 255 255 255
0.311390 0.012325 0.096400 255 255 255
0.602995 -0.009482 0.759558 255 255 255
0.485317 0.017779 0.103129 255 255 255
0.704165 -0.009579 0.894862 255 255 255
0.824877 -0.000258 0.879224 255 255 255
0.498232 0.015395 0.166584 255 255 255
0.128771 0.008828 0.971835 255 255 255
0.855577 0.005126 0.333586 255 255 255
0.556859 -0.013545 0.897709 255 255 255
0.750171 0.010011 0.065171 255 255 255
0.704017 0.002329 0.138201 255 255 255
0.958518 0.013907 0.447414 255 255 255
0.298824 0.009870 0.043275 255 255 255
0.689216 -0.006470 0.260962 255 255 255
0.366999 -0.006165 0.593433 255 255 255
0.401479 0.005635 0.136559 255 255 255
0.223982 0.005008 0.116173 255 255 255
0.347517 -0.005545 0.410681 255 255 255
0.941469 -0.000493 0.099012 255 255 255
0.292232 0.012029 0.662053 255 255 255
0.230604 -0.015210 0.790096 255 255 255
0.587015 0.004953 0.454304 255 255 255
0.248095 0.000043 0.061167 255 255 255
0.488924 0.001619 0.623238 255 255 255
0.830543 0.007590 0.237442 255 255 255
0.228897 0.003348 0.377834 255 255 255
0.409842 -0.022371 0.200227 255 255 255
0.611446 -0.003552 0.647915 255 255 255
0.535602 0.003701 0.834329 255 255 255
0.976712 0.000900 0.857467 255 255 255
0.687271 0.001713 0.784431 255 255 255
0.742759 -0.014752 0.548764 255 255 255
1.003361 -0.015243 0.555720 255 255 255
0.404396 0.011800 0.205727 255 255 255
0.352669 -0.006827 0.025471 255 255 255
0.055989 -0.004047 0.551535 255 255 255
0.192357 -0.010644 0.694577 255 255 255
0.250553 0.000538 0.380466 255 255 255
0.178044 0.011433 0.645266 255 255 255
0.752945 0.014488 0.315572 255 255 255
0.538496 -0.005333 0.362197 255 255 255
0.668167 -0.005309 0.375018 255 255 255
0.821968 0.012565 0.844500 255 255 255
0.248519 -0.005711 0.196392 255 255 255
0.320360 -0.021015 0.970339 255 255 255
0.711561 -0.002134 0.276465 255 255 255
0.401783 0.006951 0.482070 255 255 255
0.023826 -0.010700 0.250853 255 255 255
0.409465 0.004594 0.447748 255 255 255
0.901156 -0.001011 0.389376 255 255 255
0.398859 -0.000757 0.386584 255 255 255
0.326615 -0.009480 0.309694 255 255 255
0.976331 -0.012708 0.029596 255 255 255
0.653194 -0.009817 0.800076 255 255 255
0.356484 0.001903 0.444410 255 255 255
0.104844 -0.000866 0.274721 255 255 255
0.786844 -0.031794 0.203431 255 255 255
0.701733 -0.005408 0.143926 255 255 255
0.922020 -0.009605 0.949654 255 255 255
0.216927 -0.002048 0.588241 255 255 255
0.121795 -0.005280 0.259036 255 255 255
0.717195 0.007795 0.280110 255 255 255
0.189191 -0.000490 1.007008 255 255 255
0.180084 0.002261 0.638503 255 255 255
0.309067 -0.002311 0.174379 255 255 255
0.809010 -0.007805 0.818594 255 255 255
0.540873 -0.003068 0.431131 255 255 255
0.050652 0.000278 0.672596 255 255 255
0.446166 -0.009235 0.586695 255 255 255
0.696421 0.007602 0.156954 255 255 255
0.541050 -0.005558 0.112399 255 255 255
0.556566 -0.004849 0.761762 255 255 255
0.228976 0.014396 0.246812 255 255 255
0.832921 -0.002627 0.717362 255 255 255
0.560991 0.010187 0.012625 255 255 255
0.696952 -0.000847 0.962513 255 255 255
0.963009 -0.007349 0.498935 255 255 255
0.434666 0.005215 0.428938 255 255 255
0.890659 0.007525 0.794108 255 255 255
0.008273 0.008269 0.408823 255 255 255
0.025908 0.002952 0.684700 255 255 255
0.579575 0.012988 0.029426 255 255 255
0.315740 0.008060 0.933849 255 255 255
0.247845 -0.019597 0.548609 255 255 255
0.269776 0.002057 0.725655 255 255 255
0.310800 -0.010149 0.954570 255 255 255
0.746332 0.027068 0.425335 255 255 255
0.548854 0.013850 0.095408 255 255 255
0.795601 -0.004219 0.033893 255 255 255
0.823542 0.009560 0.478790 255 255 255
0.843618 0.003227 0.585686 255 255 255
0.402379 -0.002347 0.349578 255 255 255
0.407620 0.009540 0.493375 255 255 255
0.924145 -0.008156 0.139429 255 255 255
0.644055 -0.000921 0.147565 255 255 255
0.081426 0.000288 0.896515 255 255 255
0.531968 0.007189 0.167357 255 255 255
0.367488 0.007042 0.547105 255 255 255
0.973981 0.017104 0.325365 255 255 255
0.000417 -0.015040 0.938730 255 255 255
0.605787 0.001833 0.094135 255 255 255
0.728071 0.004706 0.225763 255 255 255
0.287198 0.007530 0.307859 255 255 255
0.976698 0.014119 0.384722 255 255 255
0.850808 -0.009308 0.099029 255 255 255
0.925904 0.012290 0.159089 255 255 255
0.010650 0.005420 0.860464 255 255 255
0.571028 0.003641 0.451864 255 255 255
0.283024 0.017269 0.170548 255 255 255
0.858957 -0.014481 0.894999 255 255 255
0.637747 -0.003014 0.749932 255 255 255
0.540785 -0.009042 0.261220 255 255 255
0.120480 0.008090 0.879825 255 255 255
0.556302 -0.009289 0.745758 255 255 255
0.649874 -0.017252 0.968979 255 255 255
0.961115 0.032497 0.073808 255 255 255
0.574576 0.000325 0.623288 255 255 255
0.975983 0.013349 0.263121 255 255 255
0.958063 0.020631 0.138695 255 255 255
0.636841 -0.000242 0.282706 255 255 255
0.502345 0.014028 0.728256 255 255 255
0.465133 0.016698 0.635147 255 255 255
0.911514 -0.000860 0.319821 255 255 255
0.015396 0.000366 0.106094 255 255 255
0.103466 0.003607 0.114042 255 255 255
0.087684 0.007794 0.611461 255 255 255
0.755372 0.003108 0.488688 255 255 255
0.345773 -0.004337 0.382175 255 255 255
0.635286 -0.001035 0.094246 255 255 255
0.613069 -0.000283 0.491200 255 255 255
0.384348 -0.005862 0.260398 255 255 255
0.531393 0.015764 0.863215 255 255 255
0.654565 0.009455 0.701764 255 255 255
0.945903 -0.002565 0.406985 255 255 255
0.579604 -0.007382 0.922104 255 255 255
0.611274 -0.014667 0.538432 255 255 255
0.079105 0.003749 0.820189 255 255 255
0.951390 -0.011933 0.593130 255 255 255
0.533431 0.006573 0.936618 255 255 255
0.807827 0.002056 0.084245 255 255 255
0.076849 0.009909 0.782223 255 255 255
0.411467 -0.014316 0.045284 255 255 255
0.243319 -0.000959 0.112442 255 255 255
0.277811 -0.000415 0.833692 255 255 255
0.787772 0.004241 0.740339 255 255 255
0.619886 0.000012 0.598397 255 255 255
0.432967 0.000370 0.935965 255 255 255
0.000803 0.002410 0.388354 255 255 255
0.945167 0.021287 0.002183 255 255 255
0.968201 -0.025297 0.074783 255 255 255
0.195410 0.015028 0.717208 255 255 255
0.048947 0.005594 0.254845 255 255 255
0.530868 -0.011732 0.574034 255 255 255
0.955668 0.003480 0.445917 255 255 255
0.908791 -0.019896 0.232767 255 255 255
0.585828 -0.015488 0.747963 255 255 255
0.310964 -0.006113 0.010423 255 255 255
0.339675 0.007538 0.711563 255 255 255
0.897748 -0.015133 0.761218 255 255 255
0.484309 -0.002131 0.071777 255 255 255
0.125629 -0.010275 0.291753 255 255 255
0.248587 -0.012375 0.928799 255 255 255
0.268512 -0.006043 0.475304 255 255 255
0.120766 -0.006648 0.592540 255 255 255
0.459567 -0.005457 0.786928 255 255 255
0.922583 -0.003367 0.856220 255 255 255
0.653467 -0.017195 0.092659 255 255 255
0.074999 0.008047 0.537962 255 255 255
-0.001685 -0.015009 0.218318 255 255 255
0.279643 0.004558 0.686530 255 255 255
0.361935 -0.011267 0.946651 255 255 255
0.773173 -0.008087 0.047462 255 255 255
0.981124 0.001516 0.661572 255 255 255
0.401241 -0.015372 0.639351 255 255 255
0.671139 0.000320 0.405825 255 255 255
0.986753 -0.002484 0.628255 255 255 255
0.740142 -0.019943 0.390183 255 255 255
0.618398 0.003324 0.972765 255 255 255
0.077230 -0.006448 0.491783 255 255 255
0.314961 0.005822 0.810646 255 255 255
0.914170 -0.008189 0.917533 255 255 255
0.207470 0.009750 0.753244 255 255 255
0.841279 -0.000916 0.668861 255 255 255
0.723358 0.006322 0.699532 255 255 255
0.366671 -0.000153 0.143001 255 255 255
0.537164 0.002931 0.265919 255 255 255
0.533808 -0.001246 0.480893 255 255 255
0.689222 0.005977 0.409716 255 255 255
0.521154 -0.004455 0.166894 255 255 255
0.135046 0.001197 0.322273 255 255 255
0.772108 0.002429 0.721288 255 255 255
0.397266 0.001548 0.045998 255 255 255
0.949054 0.005990 0.621264 255 255 255
0.309495 -0.007591 0.367941 255 255 255
0.258568 -0.014156 0.915531 255 255 255
0.337451 0.005959 0.301357 255 255 255
0.580259 -0.005661 0.988902 255 255 255
0.908802 -0.017834 0.861641 255 255 255
0.152097 0.006165 0.200455 255 255 255
0.286365 -0.006782 0.902563 255 255 255
0.589364 -0.018892 0.311215 255 255 255
0.446176 -0.002061 0.445763 255 255 255
0.461707 0.004040 0.440743 255 255 255
0.814971 0.012720 0.155609 255 255 255
0.899775 -0.012123 0.534222 255 255 255
0.476395 0.031353 0.054794 255 255 255
0.681507 0.010513 0.970013 255 255 255
0.804028 0.007218 0.424959 255 255 255
0.524120 -0.023468 0.822337 255 255 255
0.285852 -0.004592 0.321390 255 255 255
0.637917 0.000621 0.299399 255 255 255
0.573401 0.000201 0.619943 255 255 255
0.887046 0.000830 0.774470 255 255 255
0.032879 -0.001154 0.323773 255 255 255
0.918099 0.000727 0.744790 255 255 255
0.540541 -0.006828 0.101752 255 255 255
0.019942 -0.006653 0.074737 255 255 255
0.349986 0.012773 0.087723 255 255 255
0.706956 -0.009628 0.305504 255 255 255
0.478915 -0.001370 0.526000 255 255 255
0.955489 -0.001575 0.287867 255 255 255
0.430055 -0.008242 0.310384 255 255 255
0.327222 0.005847 0.520617 255 255 255
0.814439 -0.000969 0.062506 255 255 255
0.541478 -0.005248 0.823184 255 255 255
0.679845 -0.015232 0.570173 255 255 255
0.814984 -0.015952 0.100606 255 255 255
0.666729 0.002469 0.971123 255 255 255
0.413300 -0.003694 0.277701 255 255 255
0.129025 -0.004775 0.224858 255 255 255
0.594894 0.006848 0.860317 255 255 255
0.902156 -0.000836 0.747404 255 255 255
